ply
format ascii 1.0
element vertex 674
property float x
property float y
property float z
property uchar red
property uchar green
property uchar blue
end_header
0.03934960068366763 0.1837132960625168 0.9804230180565207 166 104 70
-0.050785397045610185 0.11670061714771614 0.9763287449207051 216 135 39
-0.06981789137208505 0.28264363455367375 1.020164124403705 43 17 23
-0.04216276903814223 0.051814401063559175 0.957061644989967 219 142 50
0.03498702518716835 -0.00028365677291217943 0.9550054690905583 166 121 79
-0.05722833234917259 0.19195712954235 0.9883177614683878 153 108 77
0.0945879155769603 -0.10322920609602346 0.9324785785748292 105 69 49
0.04263008913289047 0.2944914357770686 0.9989769758256495 11 4 8
-0.12134584297198066 -0.12129025760822414 0.9429994003300751 124 91 65
0.08746123826476332 -0.12473163245274263 0.9404419340458291 157 112 78
-0.11457872011073142 -0.14714346421034416 0.9341807918960726 146 107 75
0.05649059079482216 -0.07112817504055075 0.9745267012281502 123 83 56
-0.03589235704149654 -0.060592457563300214 0.9231049274489389 158 117 81
0.07279557206000327 -0.11117773847704594 0.9185254689275725 152 113 80
-0.04208259543651983 -0.06536008543086068 0.9246027291095584 161 120 82
0.03264648933779136 -0.051778245993470765 0.9302952461988873 145 108 77
0.005083322963980984 0.05830215935333898 0.9564489757908641 214 137 45
0.01826271719770146 -0.06848572364960849 0.9214039478717323 155 115 77
-0.05096582987072656 -0.11017866288275623 0.9224695668079527 140 101 70
-0.0737927530264809 -0.0733964680785726 0.9324537218157671 156 116 80
-0.22410560761557385 -0.030827781360967445 1.0429313125015072 3 129 1
0.008516756890117095 0.029357357842709576 0.9468612360653332 252 241 235
0.040261552139519236 -0.1404091363464092 0.9252995754754052 114 76 54
0.018256122294380485 0.04248157123272911 0.9521769002305103 224 141 43
0.12939636596598042 -0.08312692768251995 0.9678670345225057 81 122 40
0.021733543960618804 -0.154958036610726 0.9072810376070455 141 100 71
0.013251826489536926 -0.00550844936530452 0.937438791496025 160 116 78
-0.03968224682086767 -0.05801639382790547 0.9247599780343951 162 119 82
-0.10722778428435788 -0.17918613169661088 0.9372151193328139 159 117 79
0.041196205988238074 -0.048441316539922626 0.9409294284621008 147 109 77
-0.06612151601892843 0.30277614435759703 1.0080067005733842 18 9 16
0.05091941403093293 -0.15144544900219173 0.9141220934744495 159 118 82
-0.02067672269294852 -0.32953162793875246 0.9259569792956768 1 120 1
0.02410749325758318 0.08350946343843034 0.9636731651004191 221 136 35
0.09062913492581517 -0.12320697438243798 0.9432983213711389 165 116 77
0.201549631191661 -0.007928368333454951 0.9898443532629222 149 128 80
-0.08694434177395466 -0.144115927097616 0.9415394170378336 66 40 29
-0.012122401775982457 -0.26857251803228466 0.9175237368790333 40 24 23
0.032024176645267924 -0.03600567004475119 0.9320780099683093 140 105 77
-0.018181713411515147 -0.08832369565736455 0.9152393323596546 157 118 81
0.02998136706997621 0.13297596851890928 0.9762229533772723 239 148 41
0.05548273647476649 -0.13325015686078193 0.9178510055751895 148 110 76
0.06660172394169274 -0.09698283564332666 0.9309097443220313 111 75 53
-0.04898330052029457 0.0015915508010808381 0.9409674277837019 165 120 81
0.03759143302346556 0.271709646244902 1.0025017798716365 125 80 66
-0.09106554106126657 0.0633872235151975 1.003449341208392 175 92 29
-0.2095733012134382 -0.048133073647434875 1.0289564979626333 167 114 86
-0.13656483304276448 -0.11855431944330873 0.9461513461654318 135 98 69
-0.03557696549042763 0.13201449600228102 0.9955851988618231 105 96 21
-0.007076938555734547 -0.30345350502019214 0.9139477423887757 58 36 33
0.024752225295716485 0.292372444418242 0.9999019193051891 21 26 17
-0.028561422427035285 -0.042275437786292516 0.9224231354688958 159 119 82
0.17408053775408053 -0.034909903573723505 0.981341593065886 192 112 87
0.027138901641558143 -0.15489987615804937 0.913910102779754 155 113 76
0.03222415530443953 0.23735087117644013 0.992454102461732 156 105 72
-0.06248813640020251 0.11620043698171206 0.9752455739921085 236 148 43
-0.2084794890359093 -0.06464891369971808 1.0256484707718063 183 135 88
-0.18004088488902362 -0.061131089235401614 1.0117696695615988 111 77 56
-0.02225609558339453 -0.04880296706473343 0.9227504775374357 154 114 79
0.06546119816691513 -0.18046851046136672 0.9323795028990065 167 121 86
-0.06694184524100338 0.21364649793279042 0.9982064074370665 138 94 68
0.001946776547331527 -0.13468077375127066 0.9071406383345988 159 119 81
-0.012799276387394408 -0.21299662617503362 0.9138098999025446 162 118 84
-0.024533574818125185 -0.13978460534557668 0.9110337122772101 160 117 80
0.04469923467494185 0.20079155608708252 0.9837025237440841 153 102 71
-0.1016201536911891 -0.17953090591885604 0.9285106258253732 156 115 79
-0.011312255951416154 -0.25487377019758356 0.9256287939730273 74 46 36
0.06252508466765955 -0.14121960677625878 0.9160322944262942 163 123 86
0.013995688644885153 -0.0028304207667458224 0.9372039308507064 161 117 77
-0.06638899209768681 0.18001320384624497 0.9832766059877905 171 114 80
-0.04127875760801171 0.08863456054899954 0.9700748592989855 217 133 38
0.012688071363073298 -0.19601335867470568 0.9123679523245415 158 116 79
-0.048987861306885955 -0.03726557940135453 0.9269072109810047 152 113 79
-0.07502128889549207 -0.08855971956206292 0.9313441804686997 161 120 83
-0.14510819250359472 -0.12696964133754055 0.9609448166082144 129 85 59
0.047257631047090444 -0.18297716630982944 0.9191890472118751 152 110 75
0.036641088257654456 -0.1423606730152374 0.9261251242958782 96 64 46
0.03686987402131885 0.047015106025466255 0.96340862964619 241 150 41
0.009271737427183319 0.003246347800186763 0.9385607821600852 166 123 84
0.07123059514522664 0.3023252865560481 1.0505182731647076 47 34 43
-0.09777036581491154 -0.04683664885342518 0.9912143043456533 2 126 1
-0.06184715714263902 -0.08839536558500227 0.9253549758154745 153 113 78
-0.018434375631942022 -0.03287691501544411 0.9229470122940213 144 105 75
-0.0053671736998469 -0.2023288258831303 0.9088175063939025 162 119 83
0.011287151241372896 0.08349337689642286 0.9637983585600524 224 139 41
-0.07753860280464324 0.05813951051128064 0.9732973285766432 241 153 42
0.05889409222268531 0.10360776295133009 0.997888845978605 16 130 3
-0.020609460973405 -0.10469326597391704 0.9150392648411699 160 118 80
-0.011555460225863923 -0.12039138123377245 0.9091747539453543 160 120 84
0.1477972185022707 -0.059165130755020744 0.9734462335394295 167 126 89
0.04564341371045762 0.1209101248377258 0.9779824474159312 241 150 41
0.024995500928322957 -0.03953413919971278 0.9279552691312812 151 112 78
0.012695508868706754 -0.19792612024020245 0.9128935572922822 159 120 83
-0.009927799940244095 -0.284930362169182 0.9114087090443126 46 29 29
0.022890021191006447 -0.07124772004692372 0.9220118687666469 153 113 77
-0.1470464468370987 -0.07706846111293233 0.9780717854408064 119 86 64
0.02555594138163711 -0.015825189976322648 0.9406888620252912 116 82 60
-0.07826478926301667 0.04349391038664235 0.9747285086770074 243 152 41
0.06278931977790113 -0.07799106949384595 0.9770214839041008 115 90 59
0.007599315673342469 -0.021165946575064504 0.9301027158030691 143 105 72
-0.03244439990737813 -0.25883753702774254 0.9249246593565583 61 37 30
0.00948187541635578 -0.029026009158226226 0.9282046072170653 153 114 77
0.014646726719915371 0.15091146868126265 0.9834311689203891 162 102 73
0.04081369764946407 -0.15668510894439994 0.9119292583189664 129 90 63
-0.07676888457135504 0.2248196661655715 0.9936025652399286 149 101 66
0.005554889194816634 -0.2185523613835495 0.9240025620341313 164 121 85
-0.08419594926414954 0.12029102645645282 0.9843808826925756 241 150 39
-0.08133432641110475 0.05652462958565994 0.9752904769310866 244 153 42
-0.06579371344760102 -0.12390104374853267 0.9217238158149841 159 120 84
-0.06458077868458519 0.19574405268794434 0.9841364315434232 159 109 76
0.023641089957451334 -0.006878371968863131 0.9421929041474358 157 114 77
-0.06163233268159123 0.17428974801732353 0.9839010239392505 162 109 77
0.04048317898377143 0.08635883741374646 0.9721754796139651 223 126 29
0.06192545570458535 -0.07907315094156561 0.9791364528555109 8 125 4
0.026780002573808442 0.032910654423686264 0.9526584923833922 189 139 110
-0.10115969245601163 -0.16323381802965978 0.9289836261179176 139 102 74
-0.06632139899057733 0.11355532656162765 0.9752132245389937 231 144 44
0.03752227207363866 0.05928258639304469 0.9659032786376224 242 151 44
0.034978217833703 0.16821142933322913 0.9780843640103816 180 119 81
-0.05122170113590644 0.12706181606649783 0.9819561777812854 213 129 36
-0.032713426485541305 -0.25235590104975586 0.93063907825654 103 65 49
0.17539609536787334 -0.026931318805909408 0.9807694718928424 175 104 79
0.011023621582554415 -0.1476324699119337 0.9094113516360258 149 107 74
-0.05205166557029988 0.05574939720156679 0.9593847872434875 220 140 44
0.04421388883321755 0.07226828717339101 0.9723254385166643 234 139 35
-0.05211920245172362 -0.13168874018102908 0.9186217900188568 148 108 74
-0.04752830714792729 -0.17747946194434466 0.9145533264949621 157 119 84
-0.06577082908549303 0.07775569961381949 0.9694573822314831 235 149 46
0.012386009872602558 -0.2641676481818997 0.9624262960759603 53 128 24
0.06126709262936615 -0.1499291657989884 0.9169457563627232 169 125 85
0.031433386544234436 -0.1168748930019069 0.9196707196881416 147 110 79
-0.05117839094829931 0.08691480294478776 0.9676641600560907 220 140 45
0.04590430254797628 0.1937808360327304 0.9838481652235608 158 101 68
-0.07021797083256538 0.1443045161631648 0.983065093607621 185 130 95
-0.06064693237747159 0.11235659871811036 0.9744214790381227 229 143 45
0.03372834962341442 -0.05998543663431059 0.9318085167959216 141 103 73
-0.032430383503216094 0.09828579171536359 0.9837172004615783 161 88 23
-0.05329823784397208 0.09244644210109561 0.9693362943469341 224 141 45
0.11345983103702564 -0.06261973589877903 0.9500339009127857 139 103 74
-0.035086558800225355 -0.06792419101812851 0.9221575654642767 159 117 80
0.03065705113659675 -0.075332751674407 0.9263967664552144 141 102 72
-0.07642529768133698 0.3045080505443856 1.000253086011944 21 13 17
0.03508806193312508 -0.2142254391713556 0.9298917963372513 167 123 84
0.027315651466723108 -0.2066599523814126 0.9197292681966471 171 124 85
-0.06705797041492143 0.21057009231339718 0.9977555803656272 141 98 67
0.00022216585853420122 0.004394428933564357 0.9366766175633703 167 126 87
-0.03379632890228916 0.06735260884032956 0.9661122771081753 204 126 39
-0.025959485281841454 -0.211575978921833 0.9135540106874487 162 121 84
-0.057334183773771225 -0.10669820825024533 0.9228486981853911 149 109 76
0.05118586973241201 0.2856452955311107 1.0054279124083636 70 34 35
-0.0860147179195948 -0.026681546832551452 0.9689943293420916 154 115 78
-0.01830464740319459 -0.32971156378037897 0.9255718260305534 5 66 5
0.009070995966734385 -0.19031204306399122 0.9109072000395563 163 121 83
0.01173818408749223 0.06520938591412923 0.9587738330753115 221 140 46
-0.009471464032725321 -0.2968317524768155 0.9116951517917035 66 41 33
-0.04705444379127372 -0.18658778857260905 0.9122765708727084 165 122 84
0.02969079735372409 0.03177255403109349 0.9545703571616261 202 157 122
-0.027640182229910236 -0.030130535267337194 0.9244571814187793 147 111 80
0.05191219871708062 0.28539257585729244 1.009391921061009 77 38 34
0.0016281463850063395 0.09472308860110357 0.973165970131597 215 129 35
0.007158501509679941 -0.12328307119489265 0.9095966405846145 159 118 81
0.006394308763215454 0.08905697565733148 0.9676425784562731 222 138 41
-0.17509631303380113 -0.07769663549457961 0.9859146498395416 144 105 74
-0.05905942400715065 -0.14525646034348905 0.9165749564375453 154 112 77
0.013966438738352524 0.09248760294685343 0.9661151925544356 217 136 41
0.012656456549328819 -0.18477082296014496 0.9101531333102068 159 118 81
-0.08571690273206621 -0.17637385814543052 0.921994569755615 174 129 87
-0.06133321005503618 -0.16315170341757704 0.9153881343330222 160 120 83
0.017817432971802893 -0.035660912307232555 0.9271121282549625 155 115 79
-0.06304105351578064 -0.12033547383596267 0.9221202726993196 158 117 80
-0.0880702848298851 -0.1756998885413093 0.9232148365905596 166 125 88
-0.04947677772954028 -0.13260698242872038 0.9180633522560793 144 107 74
-0.03759275917673796 -0.10372560736600733 0.9200505121305369 162 120 81
-0.04626312044032603 -0.31181074816233295 0.9319628785475733 10 69 6
0.007267732562090415 -0.16868562997717237 0.9105024173655613 155 113 78
-0.07506021766772349 0.23372581598712427 0.9966352646307814 144 98 71
0.01932369494051697 0.07388982103657998 0.9599928517234639 225 142 42
-0.0798874607314913 -0.0211547552482107 0.9564254657651395 152 114 82
-0.04414225653786907 0.03353220008699891 0.9444514555199766 255 255 255
-0.018993162854375245 -0.14378910221751107 0.9080307605629048 160 120 84
0.028198234248091016 -0.170245620812621 0.9057911721663418 163 119 80
0.029701040621412985 0.1895643942850602 0.9771587942408312 168 113 77
-0.054194935408272 -0.010385010506383685 0.9381370137016163 162 119 79
-0.0071777372349965994 -0.1694991812240207 0.9048318218595528 158 116 79
-0.04896112606476378 -0.05521777277919095 0.9284952553142931 160 119 81
-0.03403731620604112 -0.08062414985010447 0.9205687303046721 156 115 81
-0.052516554234257926 0.1653630860291238 0.9947479335091168 157 100 72
0.0270557247578111 -0.17955977445463817 0.9110341749192 161 120 82
0.07749778103055774 -0.11760931730603098 0.9202286480729011 162 120 82
0.02653940104486572 0.1781963565052111 0.9780209881196472 170 112 77
0.03949444167224511 0.11456429741919977 0.9733128946250935 232 140 34
0.06599682184980957 -0.17000996118240053 0.9275544426503264 174 130 89
0.004418204644569094 -0.1471931848185092 0.9065403393899357 157 117 81
0.022059059945470815 0.04732233269219834 0.9553359042717491 222 139 40
0.12044631354127877 -0.08694681581225548 0.9591446439212254 162 121 84
0.07034359402539299 -0.13849020975280454 0.915986898303642 167 124 85
-0.08427150952144945 0.1689429664676759 0.9911206661351911 183 115 81
-0.011782607914300844 0.10649414740806964 0.9994175405994901 161 85 33
-0.08495067899488559 0.2126096075901573 0.9908116424184089 154 104 69
0.016822074135665038 0.052268305208559296 0.9543701353618191 222 140 41
0.04782033906411509 -0.06586268994017558 0.96185814600807 119 83 61
-0.15498761366839434 -0.08888346658779364 0.962682400801588 150 109 77
0.0018342056148107349 0.009282628326700562 0.9397029891139643 231 217 210
-0.0653109115954068 0.12137289307875508 0.9762545141937502 231 141 39
0.012777998074329819 0.028241127942390858 0.946917580775476 254 245 243
0.09348932725701957 -0.11934779469230936 0.9464044754742759 165 117 80
0.01270592942643231 -0.01797858012163733 0.9324877965334291 146 109 78
0.1339173000708552 -0.04573828652936257 0.963511154958397 144 106 74
0.023552076252541434 -0.14963368528577112 0.9147615441500104 140 99 68
-0.02669086831309535 -0.041338851149428896 0.9224135253155592 161 120 83
0.007267345899303022 -0.1865871504109949 0.9102575957224524 161 120 84
0.08998787835399479 -0.09201896842625093 0.9281194000940243 129 89 62
-0.08092305691737722 0.08902173254875971 0.9759925051186324 233 141 35
0.038241688723214005 -0.19957814380228547 0.9205250747830679 166 121 83
0.027796916060354008 -0.11503701310286099 0.9188705993510345 138 99 69
-0.04924733461470603 -0.20141778247261116 0.9143050905760975 162 119 83
-0.0045426958284480005 -0.17105900855739473 0.9038321223769906 156 118 82
-0.017489904094301182 -0.2600275382439504 0.9191590405900374 42 24 21
0.04341415141251275 0.30637141844937066 0.9965910020937092 24 14 18
0.03323055259046134 0.09163569086882804 0.9681887784311424 221 134 36
0.032614999409946256 0.19009399845577693 0.9775360470369339 170 109 72
0.07407931590021725 -0.07790692172885946 0.9476608687287404 104 65 52
-0.06482035728976779 -0.14193134386936943 0.918367911858627 161 119 80
-0.060059832334746106 0.042064288395526686 0.9602692970305948 227 145 46
0.04909328022507586 -0.1452133608958626 0.915472776739347 142 103 73
-0.0552841107909515 -0.1462825078282896 0.9166823255121196 152 110 75
-0.005556426084691206 -0.2931609146105889 0.9132674302183743 54 33 29
-0.16062719771448458 -0.10060173394947142 0.9686355694877022 171 126 86
-0.045323325509957865 -0.04031881047288111 0.9253227507521351 162 119 82
0.07532383282690808 -0.09479063476888591 0.9267417107829374 141 102 72
-0.0406043336329089 -0.1341891177362246 0.9173380917169968 149 109 76
-0.019759350702556418 -0.30992983609174285 0.9116727445591446 50 28 26
0.0020272776009773795 0.025336232192075606 0.9423919995706569 245 230 220
0.03258216472174885 -0.18749603729357237 0.9147032481330521 146 103 70
-0.0482355087997509 -0.13964281875052406 0.9161517083749139 154 112 75
-0.062182043676754846 0.12034213067042288 0.9757732970919925 228 141 40
0.005808596442308499 0.06216208878256543 0.9576290350431007 213 134 44
0.0378450413469512 -0.037079072807811794 0.9369069327086129 138 100 72
-0.11378065061652505 -0.12575980625406158 0.943049281370805 123 87 61
-0.06890267630589916 0.042344866503641616 0.9657383475909088 232 145 41
0.06679796093206206 -0.15336726562531316 0.920439584476559 170 127 89
-0.052759955715048795 -0.09858455272940729 0.9245786129574373 138 100 70
-0.08075507969567194 0.2575360699426456 1.0079129210640079 157 106 73
0.041017618267212556 -0.1446594468285688 0.9176094974984099 122 85 58
-0.006608021020363048 -0.1557736070620449 0.905466850626542 160 119 81
0.03303205556090289 -0.13343635891465794 0.920435759576779 145 103 70
-0.07253760935967801 0.21583328002070262 0.9941105652127569 144 99 72
0.16197375114999643 -0.0497430669080359 0.983243264764056 183 134 89
-0.04196091402934606 -0.2811441129987065 0.9261391784180418 54 35 33
0.024190768552153647 0.23904030996832445 0.9968644602739141 132 93 64
-0.08035647829382067 -0.15698946262182936 0.9275795636132301 145 105 72
-0.017479930558640323 -0.3096350550536174 0.9127037423016663 55 31 27
-0.047892547898489735 -0.055383534108605616 0.9279783272366452 161 119 80
0.032469894696140665 0.09420184194975502 0.9672954547630245 222 135 34
-0.08333893984027553 0.27841894972073356 1.0064033541135298 106 67 54
-0.036760276692941414 -0.05322550215812201 0.9234481206210441 160 117 79
-0.04895184761395647 -0.04629940791111727 0.9287341903763319 160 118 80
0.04552109846125291 -0.15201620034444543 0.9136021396442974 134 95 66
-0.03365411632180958 0.0476244777025853 0.9576337816853443 204 128 43
-0.03310869384435492 -0.20561849916222788 0.9124330267659244 162 119 85
0.010399130836152947 -0.036920875987812025 0.9256973400414028 158 116 79
-0.22014145912492786 -0.06589245006034034 1.0368328008381924 195 123 93
0.006477474004070802 -0.08144788885094419 0.9174386698270943 158 117 78
-0.059056649458011076 -0.006507859919460752 0.9418328896032003 164 122 81
0.011732051607187157 -0.2811225258728747 0.9304517715169122 69 41 33
0.034069356868922485 0.12247855089191777 0.9721473538360764 243 151 37
0.050142298328947205 -0.19653927530268 0.9231594170938862 174 128 87
-0.08713014353125784 -0.05673508944943849 0.9602457317001257 144 103 70
-0.04602122460103403 -0.06827509775349519 0.9258722522886238 161 119 80
0.027951642568893785 0.25295098414947925 1.009748775909653 106 106 51
0.0019462615090000172 -0.1097541046095094 0.9120637243376307 157 117 81
-0.045066802167778634 -0.04806834674150892 0.9263514714816667 161 119 81
-0.024830392990335737 -0.06866459752760394 0.9200113399367916 161 121 82
0.020580126363666098 -0.09670489986274008 0.9185574907224748 152 111 74
0.042127390596172466 -0.1368886706288688 0.9261690208685673 115 80 57
-0.04111239259605064 0.012160670252247388 0.9411582523103746 254 241 232
0.003135803180937846 0.07174185128382109 0.9618963893514662 207 128 39
-0.07735733476003379 -0.021327944563265228 0.9524765713123545 145 109 77
-0.08664605481587319 -0.15782082807945547 0.9264958962195277 151 111 77
-0.033695647975413884 0.015054304003464053 0.9500159499331224 246 230 221
-0.024912791057440143 -0.049775061151651534 0.9226094978149268 158 118 84
0.08450433269598119 -0.08838250166961019 0.9287709053577698 147 110 77
-0.03322991216860641 0.08567371207797438 0.9758890956588985 186 108 29
1.6546473952214545e-05 -0.1614271172613954 0.9047844229284353 161 121 84
-0.009854962744438745 -0.2066275452122392 0.910539168336732 163 120 85
-0.04344719548709803 -0.22352805411514562 0.9245374340139005 170 124 84
0.0007155646717947732 -0.004246275622364232 0.9339793081511999 166 121 81
0.00206908972272352 -0.015316758425506123 0.9333515856009135 121 85 61
0.15022928406860056 -0.027060699702967983 0.981780785064156 121 75 61
-0.07909224589901565 0.052356505606803216 0.9745088029999992 243 153 43
-0.036319054239687565 -0.20094900467719828 0.9125295807517073 153 113 80
0.06815446318600725 -0.08645523306089894 0.9427020966132652 95 66 50
-0.051545760276079856 0.04206237549972354 0.9569260347039901 220 140 46
0.05101371774876636 0.1259395877888575 0.9831421020082253 249 156 41
0.0022362203850701864 0.051452534515783084 0.9538463985302007 207 132 46
0.0902607953315169 -0.06984156326334995 0.9430220806794384 126 90 64
0.05158449406763434 -0.11216178030251053 0.9321264083559374 112 78 56
0.007534238995726479 0.03511188534426846 0.9472123666723178 243 235 229
0.023786877341324685 0.2976739870643487 1.0000791245980123 19 73 14
0.0638802977476721 -0.11336671671109036 0.9225610413758267 140 99 68
-0.1217613846276914 -0.12915867700872746 0.9413247644611683 130 95 68
0.10415946148609971 -0.060819016537917846 0.9503653250271548 147 112 83
0.011800788015508578 0.13927588201357086 0.9826379455930312 132 85 63
0.014596541725259817 -0.13692754906742735 0.9106426425133989 138 97 66
0.047795222352485095 -0.13944770764556536 0.9166259916118602 129 93 67
-0.02854794434838173 0.098833182472367 0.9859085699529401 147 78 19
0.03365513273537573 -0.057521747879379616 0.9324489686945795 138 101 72
0.116567629530681 -0.08825584155148314 0.9521040315366611 168 126 86
0.07131110318160998 -0.17461690658714948 0.9349452062432944 169 125 85
-0.055014343189644266 0.12539217313645562 0.981108157698923 225 138 39
0.12549662546796117 -0.05386564284556826 0.9586845136982836 134 97 70
-0.17045066739425999 -0.10769311906354712 0.9864197145033573 157 125 82
0.005858218442040214 -0.0317129287102378 0.9264846336310202 157 118 83
0.026614545074419828 0.116115576718777 0.9716210452200887 234 146 39
0.0029229341947752652 -0.276863218961577 0.923335277439565 56 33 30
0.02352616769761931 -0.19627722343432533 0.9136007181300875 168 125 87
-0.150235434205278 -0.10435048407700762 0.959949779298158 165 123 85
0.0513743568339313 0.08880317068292028 0.9839146950336617 228 128 28
-0.13247475469843994 -0.11169901482225483 0.9507225663683436 137 100 71
0.025342997180707462 0.0030793566864952228 0.9442665206331842 166 123 83
0.010193079050718083 -0.07076426557921446 0.9199110485208885 155 115 80
0.028423617442443747 0.19789147825590736 0.9786599135226074 161 107 72
-0.08353420211864436 0.29130150496986257 1.00438371021473 17 12 15
-0.07029089788429212 -0.022347978066864466 0.944586264568183 151 112 79
-0.0357626563034415 -0.09904376181030984 0.9201042053818052 163 121 81
-0.12300492243920944 -0.0940532120400546 0.9741555076795646 30 111 17
0.0510455226676791 -0.18718301242000468 0.9220546744277369 153 111 77
0.03817136552762773 -0.15393582360358016 0.9189191572109275 120 86 63
0.11857911898964206 -0.0414022333977631 0.9712300680191541 122 87 61
-0.03503778067700751 -0.07077382460868865 0.921923069861186 158 116 80
0.06058734669044889 -0.1984936895195162 0.9370837808530657 175 128 88
0.051929946708273104 0.31904199567076447 1.0109516740484317 21 15 20
-0.04969803288551346 0.10059718634317827 0.9721614066410307 219 138 44
-0.04793910710192026 -0.04910032715648858 0.928426132339374 163 119 81
0.036195048747462794 -0.1766867647054678 0.9147640184695887 136 94 63
-0.019076153198067946 -0.13734811636385558 0.9084098739292125 161 117 78
0.036723266593579176 -0.0842106844144014 0.9327437376708639 147 108 73
-0.03072758065761732 -0.12130100121646395 0.9159059623888609 162 119 82
0.16323455467883366 -0.01985263302777558 0.9817430774487406 149 90 68
0.018917419556871023 -0.0630105941464402 0.9225427519176007 151 113 79
-0.06084322907038835 -0.15161930471783047 0.9160083850641 159 119 80
0.03066515629867938 -0.17396152775442172 0.9065573984322293 165 122 83
-0.06613684137283946 0.18834794815340575 0.9826164055807061 166 111 79
-0.08170556549997218 0.26589778484193277 1.0081924974869652 169 122 86
-0.09680193538675205 0.28902290636013533 1.0208448462608126 56 42 46
-0.07476150469302491 0.2868012797288933 1.0085626133608707 18 11 13
-0.02174436514433831 -0.1404502334902247 0.9093856258749622 160 118 81
0.04267556532670849 0.31848023177591406 0.9942887303501554 23 14 16
-0.0025763932242810744 -0.2641159539869426 0.9255216415722699 65 41 35
0.10313492305938854 -0.07408600486114751 0.9446569646952828 141 101 72
-0.020308350253983493 -0.2237308740851093 0.9209189190065517 160 116 81
-0.071329454420144 -0.08440172116396084 0.9301847556043836 159 118 81
-0.03718078350197803 -0.008287088825549207 0.9343800076304927 165 123 86
0.022219339296786513 0.08932067009161751 0.964981789342021 222 136 36
0.04821586352954958 0.0047126528337209225 0.9748683324592067 135 100 76
0.03414435955977088 0.1459532961086968 0.9799798171905227 161 108 80
-0.01722775017553749 -0.3133488176851575 0.9131553440251623 33 15 15
-0.1265604730902208 -0.14603914245005523 0.943870116093394 131 92 64
-0.11206032459268493 -0.14698363208214837 0.9343189091767645 141 104 73
-0.009137846268962396 -0.0732914482873678 0.9190254211490404 151 113 80
0.010945770966207575 -0.15202451492632651 0.9082407277818859 145 103 71
0.06189766578816138 -0.03642262762459539 0.9876580802864563 104 113 53
-0.11962803931349768 -0.14592404652620072 0.9374317099740475 154 114 79
0.003407017409659577 -0.16574689509773596 0.9045851410378744 154 114 79
-0.04411491940245166 -0.19394853856973718 0.9131180719349626 162 120 82
0.014926387850430147 0.0612646925758529 0.957812875235792 225 143 46
0.022094595577373657 -0.03422440538156598 0.9277879285053696 150 111 77
-0.029516834500661285 -0.012799394463373949 0.9312171722810701 158 116 76
0.014149100929878346 -0.2700422627032939 0.9547279642270308 7 128 3
0.14139390741451519 -0.0732941337090242 0.9716789990393229 129 128 68
-0.05743216051194883 -0.08118979191323332 0.9265944192714205 136 96 64
-0.06761896249230868 6.685386777421262e-06 0.9515932359677052 166 121 79
0.19827610385370953 -0.022896082756378066 0.9912330477781298 178 91 71
-0.058205322877199456 0.021317806551036378 0.9485200712670485 255 249 244
-0.04087928683457643 -0.019641106132593067 0.9305359408504998 139 103 75
-0.059163372650429306 -0.15793984837935393 0.9156089478188565 156 116 80
-0.020203248677335913 -0.2844048784674435 0.9117901858375586 50 30 27
-0.043668531684777565 0.14576885012893842 0.9938061525601941 120 90 61
-0.034775604040897794 -0.16430344456655174 0.9142533958923188 159 117 79
-0.029964224999700275 -0.3264236706209989 0.923655546871664 9 41 8
0.024222123717144984 -0.09204922756535586 0.919935347080213 146 106 72
-0.13064895945919397 -0.11416912417519108 0.9487126662876454 134 97 68
0.08013404652988183 -0.07948162790579587 0.9365575183659495 129 93 65
0.04354133820007341 0.14874429758681662 0.9884252869082795 181 110 84
0.04347532913973518 0.1380010819667597 0.9782489105921294 139 94 65
-0.0331837191098743 0.07860398053545685 0.9730979174815755 202 121 38
0.018586353586453573 0.010164991976749659 0.9455907469965807 250 237 228
-0.0026480210345640573 -0.008021485797064236 0.9334449062996054 162 118 79
0.029766391306209408 0.2776003890290645 1.0171226890452418 82 117 42
0.028856631997393963 -0.21664502299373115 0.928364619567834 158 112 78
-0.1311804255857072 -0.12328320701462889 0.9430466772132425 143 104 73
-0.08083228913172497 -0.2001422265467352 0.9315549269596616 164 118 80
0.01312796033253801 -0.035825753386708924 0.9261723455822524 157 117 81
0.017851769933098505 0.034160648016298284 0.9486020387614609 244 233 227
0.04619983396274921 -0.027730113005974787 0.9579934390148389 148 110 77
0.010612216133596843 -0.034428562177219804 0.9262563136352657 155 115 77
0.06126804099285718 -0.13518321718374002 0.9162160373751832 156 116 80
-0.001796711119168088 -0.09119903248818834 0.9152404394758179 151 112 77
-0.008297468708432341 -0.16180962822221698 0.9044716553512889 162 121 83
0.026961414203097236 -0.18615014952671458 0.9062968734382837 168 125 88
-0.009270826428586133 -0.25897121351489455 0.923552045019729 58 35 29
-0.09835783822559518 0.3212407801661212 1.0099453311707745 0 128 0
0.08175261359841708 0.31400346827985703 1.0612738793601204 115 90 94
-0.044535682037317864 -0.15235348067562127 0.9176875598161681 145 105 72
0.17340679208968565 -0.01166336700361436 0.9826085526694346 150 91 68
0.09425818873669958 -0.08384093291718697 0.9337707227542553 156 114 79
0.018923612454899055 -0.14613836256235982 0.9105543634985287 131 92 64
-0.017550673595709224 -0.24104784830821807 0.9293066324088348 166 118 80
-0.10795141239069934 -0.12624195690242715 0.9443585305828776 112 74 52
-0.027396176246071803 -0.32940274724063245 0.9283541144887766 7 61 5
0.010364998632892084 0.0003045903778969108 0.938066240591481 163 121 80
-0.007203646866231849 -0.10369979353134241 0.9128237153611694 155 116 78
-0.07221337610675309 -0.07706231682641733 0.9315408441809305 156 117 83
0.029956116140615975 -0.0712644229156844 0.9265460491292467 151 110 74
0.007938757387148191 0.05459250807654349 0.9546048813701322 211 134 44
-0.03833644713448916 -0.2722348046041396 0.9268907160515091 53 31 28
-0.011520574160858908 -0.20149874400460585 0.9090389906636306 166 123 88
0.05915538737323473 -0.11082115511822305 0.9290801445761051 131 93 64
-0.03576741957778744 -0.05312553253772275 0.9228217555721454 158 118 80
0.03200554879360251 0.002804231811772199 0.9522454637525991 161 118 78
0.03293507485328292 0.02180086030684488 0.956224608856019 249 236 230
0.01318383548967537 0.11718340676671386 0.973384331758211 224 142 42
0.00609953944828687 0.04353001743539368 0.9515946315973518 212 132 39
-0.03954279194853843 -0.07901528255930111 0.9231039075708302 163 120 79
-0.0020741939281724905 -0.18943088766055688 0.9047670733304498 165 122 82
0.07868469741160986 -0.09949252392123985 0.9247270958001955 152 114 79
-0.01390271412781255 -0.1640310147310517 0.9064449560839701 159 119 83
0.022457842935622536 0.21375914771882473 0.9868887880860966 142 99 70
-0.007417954456893516 -0.27215826251620834 0.91817759467627 39 23 22
-0.06811333024064642 0.010376567472916176 0.9549182874042812 255 247 238
-0.04119602631537459 0.13739028475690276 0.9926857126194557 126 80 62
0.12146688295498743 -0.051196254441048264 0.9584047221318293 138 103 73
-0.05354882973446675 -0.019834368350609095 0.9320455608689915 145 107 75
-0.018140379321001893 -0.1295072295074878 0.910627329815617 159 119 82
-0.041591749896342886 0.0662369162325105 0.9620426661325133 203 127 40
-0.04588882651257943 -0.19025732683779784 0.912701787456147 163 122 86
0.05112690738021649 -0.1596605529949739 0.9131826275166683 153 113 78
0.06734555719859475 0.311811171804385 1.0287110959484436 164 143 133
-0.024405979991752685 -0.13085683070010418 0.9125074651585234 157 115 79
-0.02111829113787697 -0.03485310155460179 0.9224704483258938 150 111 77
-0.03156851364455911 -0.03306079803108527 0.9235762850208153 155 115 80
-0.18766997988320966 -0.05977678170154425 1.010384966804025 107 75 54
-0.02747408201342491 -0.051573722792561026 0.9226943537544201 159 119 82
-0.051402214493297085 0.1489160853808761 0.9881846896035488 166 111 85
0.038173563332703365 0.231243535509188 0.9918034669140509 154 103 69
0.04895351590284093 0.19283195878508974 0.986797480688118 166 106 72
-0.13427742821941188 -0.12058275415998569 0.9452862353926318 143 105 73
0.0037514239778216898 0.005935738283514406 0.938528820692664 192 175 159
-0.0501487666152604 -0.09675939347778956 0.9242791215880732 137 98 69
-0.04037957389062262 0.0799602700836494 0.9702215761751396 214 133 42
-0.054614604641161316 0.1523109700008085 0.9841887772966305 159 103 80
0.0054042604063319595 0.029242073465532276 0.9461429755129304 248 238 233
-0.021237166398883112 -0.26153698410065934 0.9187856130953469 30 14 14
0.045488926914261776 -0.19041607198380203 0.9201053333286815 152 107 73
0.041060518310579955 -0.10227138565705804 0.9437564087335993 94 63 44
-0.06406988362521493 -0.21230028088841896 0.9285048872791001 168 123 87
-0.0018145142494694 -0.06689951667664823 0.921062120219007 143 103 72
0.14963474148754438 -0.06040477413147466 0.9766594259885221 90 127 41
0.04642286372174102 0.11033673259950127 0.9797069780535974 243 154 42
0.19488546580022775 -0.002443672428772886 0.9888099634822396 151 132 82
-0.046980045360988994 -0.05164187514263605 0.9281491043304868 166 122 82
-0.06715048075883208 -0.10690443006453776 0.9247190597613096 161 121 84
0.1481825199912761 -0.03255710685378418 0.9799320195361959 139 103 72
0.027640860547489533 0.15154858221536083 0.9785692361806538 180 123 92
-0.06549538423574099 -0.1345086386502724 0.9200423013497371 157 117 81
-0.09722414812809145 -0.14646866674278397 0.9383688659574192 133 94 63
0.02172589009664282 -0.08853610638112258 0.9196620247516849 152 111 75
-0.03227039780040025 -0.24689543972895986 0.9321424266706555 121 71 48
0.02238680382178506 0.1050289495132994 0.9677613879289676 230 144 41
-0.07482570704220767 -0.014899329015497665 0.9539526025101762 164 123 83
0.03001645630212276 -0.03588736943947861 0.9302057229757635 145 106 73
0.06481639795156648 -0.1338962977165631 0.9152455939882661 149 109 76
-0.05162410877680168 0.001551047858675746 0.9424049170365191 166 121 81
0.08718198341814103 -0.07396215724412304 0.941076774907148 137 101 71
-0.09310070863891831 -0.19225879662376738 0.9279132989273127 159 119 83
-0.08531236889163318 0.2679020452479717 1.0100594131090328 169 126 92
-0.012044325746628759 -0.33013577202936 0.9286300500396004 3 97 3
0.03440031557711541 -0.1839573031795059 0.9150431637689151 143 99 68
0.06626824408402811 -0.19196442296004732 0.9387640635873608 127 128 65
-0.06714112795567904 0.026224814379427717 0.9559528661856056 255 254 252
-0.0544864337909791 0.14880898099854445 0.9840966539377735 160 103 79
-0.0433866259077276 -0.15482168560969506 0.9172419158695682 147 108 75
-0.00915364221971288 -0.2932000681827741 0.9118109425380511 62 39 34
0.018810136561797385 -0.0328256556331137 0.9272141148799421 142 105 74
-0.0582362124620988 -0.16404944216215236 0.9149654738302507 158 118 82
-0.0609577565477868 0.14861024997886726 0.9826479829419156 164 106 81
0.04537762861854515 0.2662057041124411 1.0048779563777261 147 107 79
0.16098195389049844 -0.028025576918806687 0.9797309417541599 177 120 91
-0.044276146153920046 0.07708129343375157 0.9675222558474206 217 137 44
-0.06345097068895889 0.2311256662018699 1.005581424413264 39 118 19
0.0378123163630843 -0.05897297341611672 0.9340326049491772 138 101 73
-0.1788997643451466 -0.061703781520576914 1.0151179981852996 37 114 19
-0.09427023649912758 -0.13227530968712992 0.9474042991325521 120 86 61
0.02325457617429214 0.13818333557984414 0.9785968906987058 246 156 46
-0.06137094936690822 0.04570288067372826 0.9614386725697597 229 146 48
-0.0755536413970401 0.16009113328525512 0.9842719390567745 164 108 79
0.042101449246311366 0.079120676346263 0.9702239593666504 223 128 31
-0.1281534178676143 0.3013628631386037 1.074873960107049 5 133 3
-0.048741684438543036 -0.292817583204613 0.9356880523104534 68 36 37
0.037866226360088226 -0.07862522994238483 0.9362868905012652 144 105 73
0.030610274549832422 0.1717848799365358 0.9775114252090139 177 115 81
0.03536593358720982 0.04333187604612186 0.9615527372720395 235 145 37
-0.09301433456046623 -0.20931570522860732 0.9424582099354786 172 124 85
0.044663720504116516 0.13155880611574414 0.978227049163176 238 145 37
-0.04560567352299563 -0.0011794122920401988 0.9379588869026608 164 120 81
-0.23328214278122444 -0.034951010113706896 1.0475934360273595 50 121 23
-0.0805525685896444 -0.15777932063458852 0.9272497926313668 147 109 77
0.0006272244734913932 -0.15769475682850675 0.9056279116246305 159 118 81
-0.06572222538764089 -0.11941434193990763 0.9223953760178293 159 120 84
0.12335694916515716 -0.039719788455717095 0.9729968756311702 112 80 59
-0.00027497134982162533 0.022993453147783977 0.9426376731674682 243 230 223
0.053601842950719764 0.21905411377510797 1.0009041319462815 143 105 69
0.1166441910880754 -0.045769462077312625 0.965754697633766 127 91 63
0.03659080705181525 -0.08144337325842421 0.9342944380909244 144 106 74
0.010061506733122868 0.08911496594888199 0.9658951643538387 223 138 39
-0.057516450808106405 -0.08200998545546269 0.9265781781655202 140 102 72
0.004756648397382242 -0.24248236802280115 0.9434867875050943 175 117 69
-0.09827133543360377 -0.087531880473637 0.9881111936894871 55 105 29
-0.03865033374448474 -0.18988657548604948 0.9124727298944895 146 107 74
-0.07972110221231128 0.32548939141475747 0.9977078570424303 0 128 0
-0.09758161226989746 -0.12076962347408751 0.9558538959034603 81 54 40
0.1443669583618694 -0.03394891219914072 0.9768099541454565 139 100 67
-0.1028164470579624 -0.15676768605848754 0.9319236916915556 114 78 54
-0.039860903711864314 -0.29194669958855457 0.9199032607530959 60 38 35
-0.028159479080438945 -0.2535914212194609 0.9283696168716977 82 50 36
-0.003604014509104792 -0.26948247274940546 0.9210236225812009 48 29 27
0.024448644591163162 0.16674456993180886 0.9772437682016385 181 118 85
0.02729365878897006 -0.13766981014464688 0.919180655546854 150 109 74
-0.07841925874948584 0.061923961733830205 0.9725558843778932 235 144 41
0.0730758273764337 -0.08698556943627032 0.9326784462020175 134 97 70
-0.0037394554401764275 -0.1514890282718749 0.9058772017976572 162 121 84
0.02476189542504146 -0.2129856218333782 0.9211455252086787 162 117 82
-0.0019832028918993897 -0.14901109799811918 0.9066165882802714 160 119 81
-0.02916176719503256 -0.26285436142792495 0.9260360283930673 46 26 22
-0.06576418065236965 0.2068471848312954 0.9959655288806202 142 97 71
0.11021950709275939 -0.08526612247305417 0.945552017328383 150 110 75
-0.03984891393195134 -0.24613585181313355 0.9372323730343289 136 77 51
-0.09083341753600772 -0.021257488128503206 0.9807115915401559 159 107 75
-0.08875468033041162 -0.13897746632114075 0.944957003134148 106 70 48
0.09210987127728658 -0.07408018193461019 0.942281996430577 120 87 63
0.05763939546356572 -0.11985007970020964 0.9215312905476188 134 97 69
0.07975986179633711 0.30040261367613064 1.0560735074221188 23 15 21
0.04305845815944647 0.05870937164017593 0.9696040303734279 246 147 34
-0.2243671140611492 -0.05464035763293687 1.0351184762819505 157 101 80
-0.06296047412662988 -0.08377515150054679 0.9266636995254478 152 112 77
0.03258216472174885 -0.18749603729357237 0.9147032481330521 154 109 74
0.02739129738140884 -0.12543605013797277 0.9225097404222279 129 91 62
-0.08816302233499934 -0.030584460886023134 0.9715909611747019 153 115 81
-0.019075933310197826 -0.14025688034007555 0.9082091593819254 159 117 79
-0.007406946040144235 -0.1638275505903826 0.9047105137041853 161 119 81
0.025483937850870757 -0.1358841850182819 0.919360227196258 134 94 64
0.011823228171564141 0.06801067306530367 0.959699889910975 222 141 45
-0.09731571609118746 -0.1716203641397721 0.9269400544947625 155 115 79
-0.11470162156213486 -0.10310862411980258 0.9690055478358826 81 57 40
0.029191170405330202 -0.030305597271932768 0.9323931888787125 140 103 73
-0.234725258164498 -0.045627318656617344 1.0445219972995592 0 131 0
-0.09425602576048903 -0.1994715372679576 0.9370285596124418 168 126 88
0.019517820651087568 -0.05218391308124496 0.9247326985837836 152 115 84
-0.044484159235279805 -0.031491937367631055 0.9279831904750906 145 107 76
-0.08519804606700228 -0.14576618650767056 0.9357163502910146 120 82 60
0.0034992806623535713 0.11206530013512289 0.9830403879554285 204 118 31
-0.12493627950326908 -0.09909120875599702 0.957877218109838 122 88 65
-0.05320220583388326 -0.12652105074945305 0.9200943231379106 148 109 75
0.01898277706427834 -0.15315385958917083 0.9082221210349035 130 92 65
0.1339720054158963 -0.042356943402679814 0.9672562334345495 134 98 72
-0.057300204141674256 -0.010036134718634614 0.9399244434007588 160 118 78
-0.07049468987658546 0.1207572118249403 0.9770441538035735 227 138 36
-0.08382345453596406 -0.04514539018288236 0.9487225695930981 152 113 79
-0.05719445839526245 -0.0268439811643984 0.933391903260525 153 113 78
-0.12894682809225358 -0.1237096859836888 0.9417415249321861 137 101 72
-0.06979045737471107 -0.21113992262074652 0.9314605990497442 162 119 84
-0.033265894323749684 0.10580199519332431 0.988323643304388 164 88 22
0.06398680752275851 -0.15602272732585779 0.9187709762152365 166 124 87
-0.07006382889165921 0.014263564124933587 0.9569237614058715 255 246 238
-0.09063489856322098 -0.16610050240050742 0.9251729261581726 152 113 79
0.008326630215151523 0.024076774949678106 0.9433259845455905 239 224 215
0.08976410905379571 -0.08988180449474385 0.9290291352668154 144 105 74
-0.08397241384807434 0.1825921205742351 0.9837512391919744 173 108 73
-0.13491278405740426 -0.10048575056938894 0.9549476263890656 127 89 62
-0.05082540739092208 -0.03206873077198409 0.9296022523660851 144 104 69
0.0895407642332134 -0.0867316387306727 0.9299523798220335 141 99 68
-0.018179077209485417 -0.11365608425873494 0.9122845965484094 159 117 81
0.023776335023108656 -0.06390035928707506 0.9228713237794371 151 112 79
-0.048481271650000685 0.03967912388520535 0.9506657816408833 215 136 43
-0.03517542259767397 -0.21625095372359357 0.9174125119691486 167 123 84
-0.06985023107525806 0.21895351712934932 0.9939207244715418 141 96 70
-0.1038236145189161 -0.14817897301413457 0.9347859956552855 114 77 52
0.011272604627325777 -0.23088773974975527 0.9447168844047625 47 122 23
0.020021275441207083 -0.13757247599739442 0.9185263739082726 134 94 64
-0.06868451828387286 -0.06943661422424327 0.9313226867496445 154 114 79
-0.027476587708922688 -0.29802545956309867 0.9116232707336288 55 33 28
0.08458914923721232 -0.07122556126442016 0.94372618323976 122 86 61
0.0009962552890069461 -0.2589516553034227 0.9314832087402505 90 59 47
-0.12082717650318646 0.29870845992641387 1.0740657457650777 66 50 56
-0.0759954507674493 -0.06491494796689452 0.9349273402735595 158 118 81
-0.07715710622154535 -0.08467062631047939 0.9328545196197023 164 123 82
-0.04305015734982852 0.07980953486853651 0.9690038777496003 217 136 40
-0.1493073277563269 -0.09224123262426671 0.9615026980891324 158 117 80
-0.07702146126735336 0.2967710480759273 1.0019262556544914 23 14 16
-0.06536510495928845 0.057035354227010525 0.9637448139478307 220 136 42
0.029018979414553815 0.011621691439814171 0.9494509505247752 251 238 227
0.13281858792968218 -0.03515209821947029 0.9734112098993579 66 108 35
-0.03949069771694723 0.0951282721450299 0.9750694735832814 211 126 36
-0.014950504724079801 -0.07297443684767632 0.9184121272990293 152 113 79
-0.02134578004810604 -0.29723389686555185 0.9091819790735635 59 36 33
-0.007227062850561107 -0.08298233687519803 0.9168789075856418 153 112 78
-0.0469069014587347 -0.10390828259443038 0.9231236305364082 142 104 72
0.03219141999897491 0.04835276824381236 0.9597266414471711 232 144 37
-0.02045733698826289 -0.09749200552232354 0.9157222859020372 162 120 82
-0.028069326407239012 0.060897445841941344 0.9649668483535997 198 120 34
-0.007448751955124555 -0.06408655574037024 0.9224327657555433 143 105 74
-0.06287936441655265 0.2281107572934257 1.0069230495364563 38 117 18
0.13657900271210166 -0.05720393550692721 0.9615261635068645 155 117 82
-0.20232650036546387 -0.0484095436663 1.0277179404243444 33 115 18
0.033427271965307155 0.1800370874837006 0.9793990583354053 175 110 76
0.06076931681239238 -0.08963254391905574 0.9726555569483224 105 70 48
0.02320859614438297 -0.02106177049984621 0.9322733804614276 138 99 69
0.02600942960394439 -0.10226003031689561 0.9215919082491372 147 106 72
-0.10144112707873876 -0.16380317160301014 0.9285397312416983 144 108 77
0.03755799063415969 0.10746175474131008 0.9720032502657847 222 130 31
0.06781631234562555 -0.12241956874509856 0.9170588667728095 148 106 71
0.17041171103518968 -0.032463731477823526 0.9797345915256883 180 112 85
-0.05658160714768435 -0.13617784363182128 0.9176675660305411 154 112 76
0.044663307754263484 0.06969504305113478 0.9726179923972224 235 140 35
0.08413915054186298 -0.09881898244347186 0.924329130839914 151 114 81
0.0010797280616026122 0.03560160108517133 0.9472187688467043 188 138 91
0.07132125561083208 -0.12634214241844197 0.9175691026672879 154 111 76
0.12351588578871049 -0.04553484776556246 0.9634115564170024 131 97 71
0.001915543884988807 -0.13383735747096862 0.9071699721370502 159 121 84
-0.07838456121665818 0.019178263436818686 0.9692030178868619 254 245 239
0.0018886643272344337 -0.2057016206973907 0.915453721509237 167 122 84
0.018097383198427103 -0.19607921775412374 0.912676734942345 165 122 85
-0.03568694310473435 -0.14895297211466865 0.9148924314792052 154 113 78
-0.13870177407015732 -0.10187789329280594 0.9542054626467922 137 102 73
-0.06618895798223533 0.18584160426629678 0.9825752003473968 169 113 79
-0.0026282372839599583 -0.27842358178759746 0.9180813242292992 45 29 28
-0.04435926496466932 -0.29636956570443757 0.9225419407983981 60 38 34
-0.0545968064863292 -0.18241879575031503 0.9130217506662441 164 121 85
-0.053843265384041085 0.11131382167255263 0.9748742485428856 229 146 45
-0.07421944142942094 0.13501159227573759 0.9826819266282472 255 163 48
0.014501135360735778 -0.08532496766218728 0.9167905612153067 156 118 81
0.031703304930209536 -0.0815661317785906 0.9246511525127528 139 100 71
-0.08013466915218596 0.30461369417350925 0.9998631695320102 48 33 38
-0.04428520175597245 -0.2075401009277663 0.9157612893974519 164 121 85
-0.057607677485367395 -0.021209998683688582 0.9365367970016436 155 114 77
-0.05790117989670917 -0.01752329515927056 0.9378118255530792 145 108 75
0.030011320109545277 0.11298571562723497 0.9699809883776492 230 143 42
-0.1286785712586206 -0.11493890765538621 0.9466390859693198 132 97 72
0.031377877031721485 0.32533630929586216 0.9929645889072342 10 71 14
-0.03272642341209516 -0.01869140016216893 0.9304717145650383 147 109 77
-0.050834109207993715 -0.07293870788191727 0.9280177705365332 150 110 77
-0.050508256781244355 -0.1724416793573794 0.9150068249310371 154 115 80
0.0375405004923157 0.27825959775885545 1.0000417430503328 120 73 62
-0.005226641338527522 -0.11304554128913213 0.9106778000785362 154 113 77
0.030834850855993565 -0.15534179782133994 0.9165203130710351 122 87 62
-0.047179153702933393 -0.11972648229114972 0.9207890948510272 148 108 73
-0.05302932467367828 0.014609831550630895 0.947340676268671 255 251 244
0.04212996306217624 0.2090988436704301 0.9827102008201275 151 104 72
-0.0668423961560547 -0.2157377698704349 0.927770552834063 164 121 82
0.04917020390738445 -0.18697346157716235 0.9210213688168603 156 115 79
0.01329997986741382 -0.31642456170085276 0.9396630707630589 18 9 13
0.03332280028728857 0.22798807726608505 0.9895885259176446 152 105 72
-0.11022959815806428 -0.11537573910583662 0.9522065190321759 118 84 59
-0.05069828066257392 0.018297791781735285 0.9454147494101098 255 247 240
-0.08615716981180249 0.17377271535142824 0.9917674049251737 182 113 83
-0.1364357269645513 -0.08171557117573314 0.9801346154596892 4 127 2
-0.05011145595479042 -0.14718291504417685 0.9164571008139911 151 111 76
-0.04753468169094185 -0.009951663710541583 0.9360076340298831 166 121 80
0.03499801111015265 -0.12843718872944004 0.9310891617141056 142 102 68
-0.055846924721900865 0.05873108655340671 0.9605720512986433 227 144 46
0.04720683237680288 0.13084845162263117 0.9801040887233958 237 144 39
-0.027981378021183247 -0.24936484173275345 0.9302254991025638 138 82 52
0.18550296964869192 -0.008586160956360606 0.9851779437131171 162 92 76
-0.07899902417513939 -0.01081070699360182 0.9612738505608116 172 126 82
