ply
format ascii 1.0
element vertex 672
property float x
property float y
property float z
property uchar red
property uchar green
property uchar blue
end_header
-0.011639897709710781 -0.06180344020706213 0.9030847447568111 154 113 79
-0.009375167407436286 -0.20371686540584674 0.8827642735086823 152 111 75
-0.098864232206017 -0.07846135914522451 0.8207759636128181 176 132 89
0.020370829613637845 -0.08937409283160844 0.9326524139301162 157 116 82
0.023441398811139564 -0.04507097045301788 0.934604929801711 162 119 81
0.03932956612270232 -0.12634717221114092 0.9485868961531672 157 118 83
0.0013470169965802722 0.08808307046392708 0.9875078312296628 166 90 26
-0.004848400520737762 -0.24821960317076075 0.9201375235899428 166 122 85
-0.022169811616312096 0.10354557761833959 0.9344046247655288 228 137 33
-0.04647632529982787 -0.29597015433286106 0.9146112372398704 180 118 79
-0.02613343497746021 0.1421934313491158 0.932127743324032 234 143 38
0.0030989366597633694 -0.09291301716823748 0.9023405896182548 159 120 83
0.0021422009704684672 -0.07766733379132716 0.9061807868571982 157 116 79
0.016222135144844226 0.20305152403115395 1.047850404344891 150 99 72
0.0011903273397710227 -0.0017856337983616019 0.9290192407791957 171 126 82
0.051041136652289085 -0.0928144996975934 0.9982177563866047 154 115 80
0.018718484676712704 -0.24001526786182814 0.9441018004479214 161 118 83
0.013426744350544778 0.004377880419944895 0.9404088143386754 162 117 77
-0.1372976651903382 -0.05162623418252535 0.816096899628048 148 106 72
-0.02435682477168023 0.07699002605722619 0.9296287542819729 236 149 42
-0.0298904656038167 0.23998693136016838 0.951354686207224 168 112 77
0.021402217468993557 -0.0733869654861503 0.9337671328508321 156 115 79
-0.02404024828304953 0.12207024785288187 0.9361149599329541 237 146 40
0.007272060382103463 0.06957134184694291 0.9794981377077547 191 110 30
0.007279206967961782 -0.30187710905910276 0.9354205175576578 31 15 18
-0.03161146312820445 -0.001177734433379011 0.9160053518611585 164 119 79
0.009963571045578882 -0.21126511871551176 0.908038779948934 161 120 81
-0.049560417726043554 0.031370055267021996 0.9150685246251132 254 241 229
-0.03707323989358038 -0.050569453656972706 0.8990970238715987 139 99 70
-0.0070604190071075525 -0.35948575750576134 0.9193802530198105 0 131 0
-0.019640444469227702 0.16434982571734208 0.9478636803571318 175 104 48
0.027309609076621045 0.11671747918939918 1.041556322464185 229 142 41
-0.03856774149071341 0.01988498597074098 0.9161989852297361 247 233 224
0.01658156487904527 0.09241755244314451 1.0199581945952156 215 131 35
-0.05270845809851904 -0.1675840851358998 0.8538330309952343 182 134 91
-0.11242516214321989 -0.06544028342076004 0.8210951723799078 168 123 84
0.017341318012917818 0.1885234976100292 1.0486691529792025 161 105 77
0.00016394107428795043 -0.1068906656667787 0.8989614942217027 157 117 82
0.027631568456439347 -0.11616692719598255 0.9352015453116866 157 115 79
0.020371129887824347 -0.13543416152508822 0.9281796416662406 159 118 81
-0.0240310797910635 0.1157642281661213 0.9350633080433574 242 151 42
-0.03954775527591466 0.05322205892064264 0.9184532620252056 191 133 88
-0.01602019587321157 0.10892437645363769 0.9394699368427394 233 146 41
-0.013432328995238376 -0.3092023886248089 0.9094197722041244 54 35 33
0.011176521134392704 -0.04741437602613848 0.9238638594994762 161 118 79
-0.08887803844317696 0.010305190918483793 0.9363197127998379 155 110 72
0.03393184621267335 -0.15219567349212765 0.9392674571206383 163 120 77
-0.03404608434482286 -0.045471076046625765 0.8995384004989372 139 99 69
-0.014800371113899985 -0.3323834648257556 0.9002130462422223 51 29 28
-0.06593646267146108 -0.19235481007029004 0.8674679862015732 174 127 89
-0.007890424167928803 0.009574330075580026 0.9271991714725556 168 124 84
-0.05079910965827961 -0.3009170434917121 0.915959429974202 198 131 92
-0.001804817636362669 -0.0684389122287306 0.9057912238459747 157 115 77
-0.044217043066920855 0.33364364176934247 0.9549097318511983 141 83 72
0.0016318467495266308 -0.3407478207708201 0.9084274526012405 49 27 24
0.03179412279769649 -0.13773646977761694 0.9378376685364032 160 117 78
-0.020182136191276918 0.12207541570798676 0.940116958726036 230 143 43
-0.013458742906757092 -0.3309099414404962 0.9022562942383988 61 37 32
0.012246014367697901 -0.05041154742394232 0.9258817411889159 164 120 81
-0.15895781989116992 -0.028306188363081675 0.804105125785248 197 121 87
0.044278229663272266 -0.0843217667136645 0.9661032599427858 157 116 77
0.020545603156154724 0.1809512693644445 1.048059933537492 161 107 77
-0.18221961966587447 -0.03732360626891527 0.8069836680512966 172 77 64
-0.04442048086573587 0.001589632050531069 0.9128007360980118 162 116 73
0.023421584946727973 -0.1759084830285798 0.9299356015945313 160 119 82
-0.007262468591837848 0.3315015470597893 1.106651338708197 44 30 36
-0.03270939033439647 0.31588160443435936 0.9613419187528813 162 122 88
-0.04407730374972675 -0.007370792183165433 0.9081023096572968 132 92 64
-0.06147764554334005 -0.18081054934730997 0.8595083944728958 174 131 92
-0.06462863879023605 -0.18331931483616073 0.8644382023720812 172 127 87
0.020361840492543623 -0.18450898080226394 0.9273152674719152 157 116 80
-0.02603043420738795 -0.0795404736339826 0.891400427423775 122 86 60
-0.06559261986965925 -0.00483060392366903 0.9136489902877954 148 107 72
0.028628287952222456 -0.20112003620460048 0.9335673248338733 157 116 80
0.017242516465143905 0.2891131615872734 1.0806694189271284 149 108 82
-0.02441408879693382 -0.011178057294179138 0.9193321938081364 144 107 78
0.018019544229448098 0.15113626534891514 1.0332597373546628 176 105 45
-0.11502618343246586 -0.05776287627132217 0.8171362757262106 181 135 90
0.017177117340328847 -0.15391122237322802 0.9247194140420114 158 116 79
0.03290892705927273 -0.1082827887725924 0.9404880676269824 159 120 84
0.01036436740059321 0.14239041315302142 1.027258535424712 214 127 37
0.031238944069767342 0.1927382898683507 1.0514011836540098 173 117 81
0.017064316445448362 0.0061001848121729875 0.9482492139932814 168 123 84
-0.04577020527242384 -0.20207016778895956 0.8628307485872523 174 130 89
0.005404958831208131 -0.29910327638303175 0.9291577543535855 39 23 20
-0.0498806823140767 0.02534255067438339 0.9208297375123269 255 244 235
0.020525070222332156 0.2880322139513488 1.081928519363345 155 107 81
0.03268871586341036 -0.2355254463842973 0.966843222983929 167 123 87
-0.026027931405644366 -0.07656764646586134 0.8919414533390561 127 90 65
0.026375815178246 -0.15296371657792227 0.9297007397751943 157 116 79
-0.032523176816030314 0.25508039483717876 0.9441739958068465 157 105 73
-0.07304329170927142 0.0048040545392303985 0.9187994094566335 151 107 69
0.040628480039970605 -0.17579349012253562 0.9513244909470164 160 121 85
0.02465623832965189 -0.07681599665964355 0.9356647038421325 151 110 74
-0.036516317980015735 0.1874412905245665 0.9435165705889578 185 123 85
0.005965879782301528 0.007425114929392341 0.9362586256823561 164 119 80
-0.016179886464996403 0.12792989918718092 0.9454674496253088 233 146 41
-0.060519990928137264 0.02370947350590583 0.927578952250284 252 239 229
-0.02710032403069852 0.14998351608831795 0.9330713351228348 241 150 40
-0.06290234126247064 -0.18963299484503116 0.864847591340707 169 125 85
-0.04422676727060215 0.013309829090149718 0.9158099638510818 159 116 81
-0.04146807686987747 -0.03636315669489007 0.9037120638746622 140 98 68
-0.06401786993191351 -0.19471631099721298 0.8673061387619325 173 127 87
-0.010636337389931583 -0.0676537071310447 0.8986095041745089 157 115 78
-0.018287491230951847 -0.09247977823008059 0.8904762849149753 135 97 68
0.04938212351966409 -0.08560352147532642 0.9852562065469718 158 118 82
-0.06620941804614902 0.016160669326034046 0.9218134613399896 217 202 190
0.007338021953933819 0.06062275579971552 0.9725998295525222 195 122 41
0.03291359344193718 0.06249283256950272 1.0498288586037798 119 137 24
-0.0007634425468807315 -0.12367801471286015 0.8959649662558379 158 119 83
-0.02557071562623333 -0.29241403004738836 0.9136122914666575 76 48 39
-0.03986644316208392 0.06541665390189771 0.9206545219787194 219 128 32
0.029376328217564602 0.1241048000410037 1.046809489684383 234 146 39
-0.029852816655430877 0.0746484030288957 0.923037990948111 239 150 42
-0.09221255517249483 -0.08907357721578375 0.8255051971431464 170 127 84
-0.0018079327944504331 -0.15338549250162292 0.8881114600993009 119 79 53
0.002134306314365473 -0.04705963302694906 0.9187166580679356 148 110 77
-0.04190306941945634 -0.27762055969204064 0.9205591155790808 194 121 83
-0.17187348018314877 -0.0018910467928040916 0.7926513577857611 114 108 56
0.026541087706040682 -0.19756706411021663 0.931436488514406 158 117 78
-0.018196491003501146 0.07517951224024365 0.940796302163072 236 149 43
0.040577904292492244 -0.17269406792238245 0.9506500583371029 161 121 82
0.0193336649779065 -0.0523567097000423 0.9321587798687784 163 121 84
0.006679681891402794 0.3150966357617495 1.0887967734192203 154 98 77
0.003132189777154311 -0.057399681909118164 0.9137744063082762 149 111 77
-0.11925222204032379 -0.03636049920330215 0.8330859523684725 59 106 31
-0.07913558138944783 -0.11370355817267101 0.8471990355790197 159 115 76
-0.025507734098062895 0.3532606270215894 0.960309253817681 53 38 41
0.029814886397574437 -0.08260379587845519 0.9401529731175547 158 117 80
0.00032768114764068524 0.1781356081093519 1.040643296986382 133 88 66
0.02248812754061832 -0.08617038334491206 0.9340203612581907 155 113 79
-0.0800105870496453 0.12777078679431164 0.9524766227471111 239 147 38
0.0074701781408963 0.18867181096579752 1.043035626062376 147 98 70
-0.037148554639176004 0.15571959683993003 0.9317026272880934 241 149 41
0.016362393653431007 -0.08982193833990244 0.927880824252127 163 122 83
0.020256724843564104 -0.11203026167916573 0.9267860068563423 156 114 79
-0.01201978885469913 -0.2733096956266078 0.930473621495765 140 82 52
0.013435344789494735 -0.24776720943552655 0.9485040725656613 161 117 82
-0.013151804710455893 0.10347239893933331 0.9437033158631765 236 148 42
-0.011703021449953195 -0.29621885280192795 0.9153600506883712 59 35 30
-0.06174293062447439 -0.13868617889375892 0.8479688699347677 180 135 92
0.023495725033178167 -0.06900948170773945 0.9355169675801043 151 111 76
-0.055173355850552434 -0.19617781208407917 0.8620457111359823 168 125 86
-0.0625308123415919 0.32925872839245185 0.9821118940105991 76 44 38
-0.04358703913557935 -0.1439906314365076 0.8483105161116135 100 61 45
0.03312948452914365 -0.07823564395038038 0.9433754021771699 160 121 84
-0.019293769881130678 0.10580522530429674 0.9374593006607731 233 146 41
-0.024613061909267125 0.13346562738475595 0.940037151198995 238 149 41
-0.01339868210405841 -0.08609769041413219 0.8937310158102278 148 108 71
-0.05992433604899104 -0.15395504136125213 0.8501809818313283 158 112 74
-0.016243448446890275 0.3372337673970606 0.9802332843305855 0 133 0
-0.02903793679659481 0.07129103063995598 0.9242201868577627 243 152 39
-0.0009329279239438025 0.019026246621809483 0.9335769769369626 255 248 241
-0.024433693900753915 -0.29891543915877533 0.9113307625088298 69 44 37
0.023761495250396652 -0.007693412995628135 0.9481237860660805 163 120 82
0.023506700582875184 -0.1632097056099747 0.9319296896393698 163 120 80
0.02754967519225423 0.3393205381600141 1.0810203063327597 41 27 28
-0.027007545634413432 -0.08167531739194955 0.8920704866832608 134 95 66
-0.05025479441643609 -0.19166199741115494 0.8585677737555963 170 125 87
-0.07314784003502683 0.012076582592057418 0.9236405219976966 147 105 72
-0.004667368599548324 -0.10835760731583269 0.8914002048036502 161 121 82
-0.06683379358771022 -0.17528341091592833 0.860322325926637 163 121 82
0.007501547090485386 0.3270934021109285 1.0911626177073963 35 22 27
-0.04648462069846347 0.24782761329230518 0.9555368273102001 158 101 73
0.03758477404297411 0.3293095496286618 1.0828266271735851 14 10 12
0.020662842854751687 -0.008349895070019951 0.9410197145537417 162 119 80
0.017354824466234584 -0.11335751722927373 0.9290784333328994 163 121 83
-0.06245084218106309 -0.14144522946436386 0.8467155430166192 175 130 89
0.015337692206090664 -0.09976474424363052 0.9273900786507482 162 119 80
-0.18009248794204746 -0.04031858203514699 0.8112173316841178 173 82 69
-0.014895248793433794 0.0025136075860040675 0.9245592029584389 170 126 83
0.00023198693178520642 -0.3354530945998613 0.9088439202010163 52 31 29
-0.15910980000687586 -0.03795596078023703 0.8095415981175911 184 134 93
0.012176596575907174 0.23089855826750694 1.0558754810913076 137 91 67
0.042246826023313706 -0.06331406077693406 0.9675621468137975 157 115 79
-0.08871283898286032 -0.10924457659858544 0.8346606212852427 177 130 88
-0.012436735521210732 -0.3403839962185225 0.9005759600514343 22 12 13
0.007437859276524352 -0.014334271277036289 0.9272939149598244 151 114 82
0.019541205338109144 -0.011312831424169134 0.9378440197917636 161 117 78
0.02137995273456356 0.14381331950116968 1.0360728521749543 241 149 40
-0.020589293205910953 0.15774247509941636 0.9434525656720718 237 147 40
0.02351228839619964 0.12497601611155076 1.0300449715513516 226 140 37
0.005081806133277596 -0.12092074983453195 0.9018855181539119 160 119 82
0.02037221723506126 -0.1734011880868815 0.927740453323301 158 117 81
-0.07274458510934205 0.14722707521275505 0.9522486560133027 151 101 56
0.027630764501034754 -0.14648520294518308 0.9340844506152993 159 117 81
-0.013471459589379085 0.1323220983554874 0.9527548852549279 233 146 44
-0.07081789377892844 -0.16603000691632724 0.858875814077778 166 122 84
-0.025655022789096454 0.21743725625419605 0.9535268611582358 176 108 77
-0.014356999255114541 -0.34747077040940755 0.9037383950830437 15 9 12
-0.09149899377900793 -0.09356818897469694 0.8264864492522656 178 131 89
0.012106599146172984 -0.13046165266290471 0.918213066808756 151 110 74
0.024825706412185497 0.2476408024884711 1.0647656436409105 142 98 72
0.011107658347496047 -0.14896003411827735 0.9091827119807825 146 106 72
-0.019404750947213396 0.3441527702340822 0.9705556794371885 20 14 16
-0.11633640053081583 -0.03799811315781056 0.8326471191451237 86 95 47
-0.12300740707624058 -0.0664861149596993 0.8211938153870124 178 131 89
-0.1255922142390093 -0.05892637007758337 0.8157921029430335 178 132 90
-0.0058281533785435454 -0.2887749059513906 0.9164097349207968 53 30 25
0.027758655986855046 -0.02483699259921708 0.9435889276961129 146 108 77
0.007921378830381435 -0.10450819734251862 0.9106347909896094 147 108 74
0.011175110824882723 -0.018505302850720523 0.9254600505079421 149 111 78
-0.05821435992905843 -0.20282958751341285 0.8675374174421663 166 123 83
-0.006639434362566104 -0.2424178632888949 0.9075653274762973 170 126 88
0.045403036944988706 -0.0917588361613901 0.9675961188577895 159 118 81
-0.027745141568707887 0.32974541262780616 0.9720833161709141 95 57 49
-0.028045433821370192 0.08532430028165332 0.924691571261283 237 148 40
-0.04349478528612946 0.028927233690212023 0.9163826258757898 254 242 231
-0.003725963051392835 -0.2948131666405214 0.9145342700606602 44 27 26
-0.027786187309653553 0.001591550824522722 0.9205349621227961 163 118 77
0.0031176014515947445 -0.1383412322698373 0.8957220427086394 157 118 84
-0.018897141519124402 0.014351102198368808 0.9235236360389769 218 201 185
-0.028164809423033548 0.21914895275111212 0.9487941062827899 169 101 73
0.02946759320043275 0.11288794697532922 1.0452546141604235 234 147 42
0.015329658079001718 -0.10506008265520371 0.9277880633409729 164 121 82
-0.1508687781411646 -0.014792941282960275 0.8111954964976711 121 81 64
-0.07871822710657729 -0.1398230764356426 0.8535208657593986 161 118 84
-0.006699998618689643 -0.328682736590921 0.9013845052256603 63 39 36
-0.022967029749863838 -0.27957153614015173 0.9231330817173016 118 75 54
0.022357222272961944 -0.14461248698912035 0.9288735011800967 160 117 81
-0.016076478428555523 -0.2041460763963585 0.876939948311683 159 115 80
0.022024185691824717 0.1921115488867094 1.0473361998571284 164 110 77
0.01354298696327054 0.1479582214761413 1.031819871816204 223 133 37
0.0479989595238122 -0.21414969064825587 0.978619425698593 160 117 82
-0.030991070676998335 -0.06224907140012607 0.8948234922239009 133 95 66
-0.023883863301853377 0.039738453457335135 0.9242836823516011 254 245 239
-0.05915670324845076 -0.16256582873367148 0.8526147822470318 151 107 75
-0.003682994681723142 -0.3140669836034417 0.9107771335298994 53 32 29
-0.16854206605184308 -0.040665023300342516 0.8122511172695962 191 111 82
-0.052775892643858804 0.02717368751424379 0.9193247876933988 254 242 232
-0.04145872009677283 -0.13345554988870345 0.8512174888042932 155 115 78
0.003140421368643241 -0.13312675161508186 0.8974617328191308 157 116 80
0.041492233191478385 -0.1527750332853815 0.9486782198615707 159 119 81
0.04432181418999694 0.33491180483824995 1.0830240824768482 0 130 0
0.03858804751556658 0.001865920833011463 0.9833951813649228 63 153 55
-0.027168984219320846 0.15071941713057938 0.9331504913314353 240 149 41
0.019541899147014204 0.2321344911188245 1.0644749578547237 128 85 64
-0.10554357772528446 -0.07991352067285303 0.8242824396968715 174 130 90
-0.04739127684879973 0.21306795361834496 0.952252941271082 183 119 83
-0.017701761714650214 0.15782636191816665 0.9495878127074108 235 143 34
0.0030670267309694204 -0.11379995768060543 0.9009076493961945 160 120 83
0.030317381887568336 -0.23750919626717865 0.9655235236554083 166 122 85
-0.07617050713202601 0.005286204086296339 0.9210125707683546 146 105 72
-0.009668377488860005 -0.3583510553442604 0.9146810649380432 1 118 1
-0.04732529647067006 0.0029004684454063553 0.9125538451558082 160 114 76
0.012115257423684881 -0.13345971946117938 0.9162602482588418 151 111 76
-0.03154714640470905 -0.2838664716110517 0.9138722982217966 174 109 75
-0.06945080343773438 -0.14959918509531234 0.8542472299234571 181 134 92
0.023465566314208007 -0.03475855219941181 0.9338887889688688 155 116 81
0.02042724886966232 -0.06608599923930816 0.9333322781670645 158 118 81
0.02252102659872419 0.2513908958147318 1.0662819593492983 144 98 72
-0.0012062561253568084 0.1088839329365883 0.9832537303448527 194 115 34
-0.036761974675467206 0.3367682828557719 0.95840765554077 44 25 21
-0.01537309663040886 -0.08996155520572299 0.8942644470517339 145 104 72
-0.03960309631668167 0.19904280699136748 0.941313057782472 183 121 88
0.01728122602896092 -0.1669444607554551 0.9250168926949953 159 118 83
-0.0017512116051761723 -0.16832404003552856 0.8873727800282775 116 78 55
0.042793901937466274 -0.0493499214124665 0.979492547044146 155 115 78
0.011270620154594464 -0.060591851324532306 0.9258743321661218 161 120 84
-0.02732809788215183 0.27591919977255125 0.9597267132443523 155 102 69
0.03635072919449178 -0.0679422375928223 1.162678022194187 163 114 78
0.03078431419422051 -0.09662042963544933 0.9382490386684588 155 116 81
0.045526520936409805 -0.18463517811016175 0.9609007645614349 154 111 75
-0.061055697537590874 0.0006123643214344266 0.9183218340069232 149 108 73
-0.0128879218303574 0.1246817036745261 0.9470887054540841 225 141 44
-0.04080711337249754 -0.042757005622264685 0.896821283344279 148 105 71
0.011867456828981627 -0.19092957355658854 0.9117553489215665 142 103 70
0.026522405750142645 -0.14888556407217046 0.9321752583113542 160 117 80
-0.003868497668857127 0.0760031767437714 0.9505023336449109 219 140 44
0.03498085731361925 -0.12480911829585292 0.941352658451918 158 119 82
0.03409834678242555 -0.1847726951023825 0.9389803051257427 160 119 82
-0.011322976711714141 0.1175380285898661 0.9495908985371789 230 145 42
0.04172052742802249 -0.10835950760038494 0.9562329291187043 154 115 80
-0.13758183602112997 -0.025199118053657737 0.816467017864069 121 97 60
-0.02545848949284384 0.3338850657753252 1.1609616375482892 45 26 35
0.007010565551181674 -0.09611315064561057 0.9099425311965885 148 109 77
-0.034258108204566914 -0.22132102553054506 0.8728311095812622 149 106 73
-0.027109523808006037 0.1311846663800082 0.9313581867275278 240 151 43
0.03652850759818238 -0.21706025947673013 0.9452485672678727 165 122 83
-0.00658597699436255 -0.324664322315309 0.9017045935552177 67 43 37
0.060984130792736554 -0.06883101531402899 1.1318951317872956 119 85 62
-0.0018964081223294695 -0.06307880886469844 0.9074458199818539 156 116 80
-0.056008789465354564 -0.09364191025558886 0.8487016203564139 135 100 70
-0.01612408156125733 -0.2568527594662553 0.9155269543049628 164 116 79
0.044939012255263304 -0.08050772341252145 1.1651710818082217 123 109 55
-0.01493812382167482 0.048188543361359734 0.9343322994200737 225 201 185
0.06016977700471045 -0.07038982998412706 1.139879049741192 162 119 80
0.02538679553496935 0.19541079214496446 1.0475837981354363 171 112 80
0.02888318591785527 -0.0068998169638992655 0.9524367204209 164 121 82
-0.0564815589478333 -0.2136970718549896 0.8715499161164866 166 122 83
-0.0015420289435469487 0.3103611422292427 1.1082486348683214 11 3 10
0.017318830831647494 -0.04685069892727092 0.9287845922580823 159 117 78
-0.09170824944854321 -0.07423294968364628 0.8146020914287028 174 131 89
-0.08389225582697893 -0.10964617270789301 0.8397459937534213 168 122 85
0.018574441975978462 -0.02356970833104588 0.9398795715639274 147 109 76
-0.06680218277749994 -0.16431585994124245 0.8560829922358236 164 119 82
0.023697194409091786 -0.022150571005575777 0.9498577522485723 149 111 79
-0.06257099586563714 -0.14430397091514463 0.8470317117683134 179 132 91
-0.02114160875397501 0.05846188492122278 0.9287102151527021 236 149 44
0.03278799626754054 -0.16122960278730888 0.9388850013481481 161 119 80
-0.055730349048070005 -0.12277535479077457 0.8424140292022657 138 99 68
-0.10208138535672333 -0.0908287243956723 0.8331986519994474 170 125 86
-0.009576647398891589 0.11264985966614495 0.9490287710215131 232 146 45
0.019342441883877657 -0.04168103866869727 0.9297689459552964 159 118 80
0.02707190415718721 -0.19959995092848182 0.9270190765875845 158 117 81
-0.014146007402358525 0.06718044779936913 0.9384196205360841 226 141 40
0.04711510233654248 -0.1496345605519593 0.9613705284201132 161 120 83
-0.06111996123734663 -0.2035808963409715 0.8686755610514414 166 124 87
0.030620452861548072 0.33845329290832077 1.0766774462606672 22 13 15
0.02056940065330654 -0.011217218288817523 0.939691445455293 162 120 82
0.03974753127932338 -0.04648965606635346 1.1839761396392765 165 110 79
-0.04152645117803261 -0.0016191826025319218 0.9137394174156952 161 115 75
0.04913973751810594 -0.07121837649783012 1.124144990074471 138 102 72
-0.02660330515004192 -0.02117255318309844 0.9112156864383326 158 117 81
-0.031244457795649418 0.34586123012468495 0.9820461763948143 15 8 13
0.01414332284241391 0.2238756621921272 1.0523942669084743 142 96 70
-0.018790362078055078 0.09002577993417443 0.9359352919929814 239 148 42
-0.06075344446236123 0.14553297013298214 0.9402120136363823 214 132 41
-0.006112126011837146 0.05542300530081469 0.9373562400137645 220 139 43
-0.03766856653493507 0.03132943003560188 0.9150612961300856 246 227 210
0.05697753915397586 -0.06046253436487728 1.1321780956700793 125 84 62
-0.0037084539503833237 -0.015388492481754152 0.9235533588714155 149 110 76
-0.021566346506603964 -0.17298634126222442 0.8683776912252401 153 113 79
0.008057710327529014 0.1684726249705419 1.0406073486115506 153 104 77
0.01064520836983263 -0.19078799217252815 0.9071849640335268 148 109 75
-0.022300759739398015 0.08261311713956788 0.931275895243447 239 149 42
0.05056367013670289 -0.06514752770415233 1.1826465940015245 201 111 83
-0.0028810673245495996 0.06803713500651137 0.9426638726754024 223 141 44
-0.009560305744866401 0.0590763140277145 0.9331450041355435 233 150 51
-0.015359303671194707 -0.0889475881156538 0.8944912974749146 145 104 71
0.04092598491981485 -0.21387886481908577 0.9530287579072115 166 123 84
-0.0775657635848328 -0.11585574344828063 0.8409306744002163 149 101 70
0.030338297032491673 -0.013534498320247633 0.964586897683316 161 118 80
-0.0096322429722896 -0.08643787932948326 0.8926109707938054 158 116 79
-0.04975289504509448 0.33583828442814817 0.9738413473069241 117 78 63
-0.011286219043726557 0.11419151038456192 0.9482298545428345 232 145 40
-0.007202736676079303 0.12044002418579886 0.9558992242644521 224 142 43
-0.07199319889108598 -0.14301115320508165 0.8527538075207084 176 133 93
-0.01148798822243575 0.07580430955131535 0.9356088658815203 231 146 44
-0.0851460424086702 -0.12090367222509131 0.8440085525380043 73 36 27
0.05901692532919776 -0.06918941909986345 1.149637721989425 160 119 80
-0.015198942327477587 0.11186693686004469 0.9425557584385176 237 149 43
-0.03727014235857884 0.3211717491893682 0.9694931006791568 122 76 69
0.018401412224627944 -0.10037934003546642 0.9313400791281307 161 119 81
0.04409831227944811 -0.1035192613458804 0.9727078309541586 157 117 80
-0.06564594163445261 -0.14561665078401811 0.8517811292998517 180 134 93
0.024764578326217944 -0.2251520382116409 0.9333511118489761 167 124 84
-0.013602975572340826 -0.06981556310154506 0.9001657496312918 148 109 76
0.04535819501262672 -0.1658190385022394 0.9607817710967504 154 113 78
0.03077181593383897 0.12160065567183523 1.0496355547312226 234 144 37
-0.00788835022510662 0.020287602267674454 0.9253107159655817 255 246 236
0.00827223804878778 0.15366267952684043 1.0354510716955416 228 135 38
0.019324460738425045 0.01182073971297349 0.9590837882442852 217 200 184
0.03501826531834997 -0.16669561019665058 0.9409922780619696 159 118 82
-0.019278092363815155 0.15968650983568264 0.9578939957846753 222 136 37
-0.029872376668818878 0.23639564954759174 0.9495822701857343 168 108 75
0.039310463232710556 -0.19637483431831482 0.9435173783899801 159 117 79
-0.02347693162693188 0.2930831753787864 0.971284571103294 149 98 69
0.043888086112438204 -0.20058043704112372 0.9521839701115765 158 117 78
0.021334984024807303 -0.19957634085327114 0.926317424927214 158 117 79
0.04072799209301715 -0.04731007697263353 1.1819285408905391 160 110 80
0.01427803204335539 -0.1127302440381564 0.9244343792110172 163 120 81
0.04261538974323595 -0.10141436782064057 0.9564781107505994 156 116 81
0.019833328371773255 0.08533064817443556 1.0133744251356493 216 133 39
0.0363214096552392 -0.17501436713325005 0.9375009683600531 161 119 81
0.023405094877150423 -0.04825022260068856 0.9351694888743242 162 120 81
0.04215353079647045 -0.15351304650691844 0.9483160465302267 159 119 83
0.029761944540837335 -0.07952892458793809 0.9398245602165636 155 117 83
0.05504517388785561 -0.09575718751069039 1.141506504472179 162 116 79
-0.14224266577120062 -0.04739739968414466 0.8147176991403325 179 130 86
-0.05406428483284331 -0.11318427416600337 0.845765437282258 114 82 61
-0.05906526829643457 -0.14846670551319702 0.8483798556801446 176 132 91
0.04367612847366744 -0.15002808638932197 0.9509686381829422 158 118 83
-0.07111702346778896 -0.1389788964946727 0.8513182750571917 178 133 92
-0.014962824147263869 0.1519642269064628 0.964500986483306 212 129 37
-0.004688699227949959 -0.2753783365082072 0.9378935846870141 144 84 52
0.02587148168234187 0.0028017100624768113 0.967729640046061 164 123 85
0.004103529284702306 -0.10802011270270191 0.9029855013964709 163 121 80
0.04179237730914211 -0.07136984687821404 1.1705331089411537 200 116 85
-0.0879819863560385 0.0019309470274549193 0.9296124547346195 150 109 74
0.03950162618730482 -0.21113317432228226 0.9563652454095494 159 119 81
-0.01877244995347246 -0.005057539723371367 0.921452196822044 167 123 81
-0.061241108245223864 0.3676925175513019 0.9423108554593908 163 136 123
0.0031936347964449884 -0.08703229655295314 0.9036310402581565 157 117 80
-0.022910355110251943 0.16526465765115184 0.9521816429000152 238 149 41
-0.007843437297071508 -0.01567933351277183 0.9211121725793868 148 112 80
0.011777211400047474 -0.20256548737189067 0.9109860544385888 148 108 75
-0.08912707722563731 0.004449699897323701 0.9322174535128998 154 111 74
0.00918028694880329 -0.10247760146557416 0.9098337378845543 142 103 73
-0.018569233287665375 0.15385694286463045 0.9502424357971041 237 146 40
0.04068117339878867 -0.09020005315202416 0.951833053136911 154 113 78
0.016324425332324165 -0.06490802724670013 0.9299197836669632 163 121 81
0.005397589295693116 -0.13583795348978014 0.9014648950848799 156 115 80
-0.06272162575037044 0.046572769859567084 0.9249669942646558 254 248 243
-0.015322592405949314 -0.25680061891044964 0.9165859121689863 162 113 77
-0.02789673464541635 0.011725939874244045 0.9228257598067605 162 118 79
0.02979180931973314 -0.03286193426398766 0.9477473101882964 148 112 80
0.03196488777476274 -0.06693148158456073 0.9429068950967944 158 116 78
-0.015163637050220743 0.13661422243547755 0.9465982025593542 233 145 39
-0.03363735751965791 0.18537000589767672 0.9450482966350271 184 118 84
0.05420528508085721 -0.05156581800683643 1.1701276194522385 169 101 75
-0.09138898979103986 0.3478551600323569 0.9770628699249434 11 71 9
0.001797117712371381 0.3215621861395159 1.1189489814989908 22 14 19
0.018989304574424663 0.306247123938732 1.0876224353313253 151 104 80
0.042074320461068564 -0.18459560993894816 0.9515661169608443 162 120 82
0.04036862633200976 -0.13680549994804075 0.9471977893563395 159 119 82
-0.007421285400174945 -0.3310296893827647 0.9028287392114068 56 32 29
-0.07183920416791718 -0.13442149475604492 0.8485694154009918 176 132 91
0.0237175876173808 0.16601320586391233 1.0536762447563925 176 121 87
-0.07645150181324666 -0.16091477130445236 0.8590797350726976 102 66 51
-0.03223327471084087 -0.21727966142642455 0.8706577657676902 146 103 76
-0.030901759869786032 0.04484929664785534 0.9241529325456848 253 248 246
0.03599441388167543 -0.08399919592736949 0.9452969526901188 157 116 78
-0.031288927950717096 -0.2964646896898471 0.9072306598509596 151 92 65
0.04625675832328477 -0.16262091175763155 0.9613124399307071 155 114 80
-0.16245741764475077 -0.03920495356359151 0.813209191329229 195 142 93
-0.009346516223367352 0.09360385735440299 0.949403899693024 227 143 43
-0.07823072268108228 0.002349773939902338 0.9217691921261684 148 107 72
0.0281955312070927 0.18851716543096783 1.049645018488445 176 114 79
0.028860447565034957 -0.05283301547282664 0.940686193006492 156 116 80
0.039095085642030264 -0.0599955583306258 0.9522782197933796 151 113 80
0.019635424498631034 0.17829473870460918 1.0490014196068997 165 108 79
-0.01665270871178312 0.3207108418970216 1.1314579955853297 3 122 2
0.029830768375200628 -0.03795753763711258 0.9426480928809295 160 118 79
0.01496744185199206 -0.242735397188281 0.9353176755994549 162 117 81
0.0026502928677807273 0.15589620657017106 1.0330338388986524 137 90 60
0.026119789779184967 0.13670045752997 1.0368615803508423 232 145 43
-0.07447612294366558 -0.1290898874926173 0.8476899796527068 175 131 90
0.025021467631026723 0.30740898424200147 1.0971570272082811 167 118 90
0.021430054383923987 0.1491599898629931 1.03746113363622 235 145 41
0.040910870987226074 -0.05811020515344054 1.1560107830187085 139 98 72
-0.07289175455527533 -0.016213058110282424 0.9096441980472441 136 98 69
0.016098782468893128 0.00569200542549424 0.9536371566177783 167 125 87
0.03527008981678396 -0.04410391601703146 0.9548449964064339 144 105 72
0.029352071217604612 -0.006752397937431963 0.9620971151158482 159 118 80
0.03707707423813312 -0.09035645377176006 0.9459833430066307 151 112 78
0.03163624773775217 -0.013772465159752128 0.966614111833754 160 115 75
0.008025950257357481 -0.16252678642341153 0.8997697807589056 155 113 75
0.024535836725067754 0.0003904484669951491 0.9565905883555235 168 124 84
-0.07508850342172617 0.002351806446903082 0.9193716494768059 144 104 71
0.03775634521495772 -0.07514677310334134 0.9487511663075622 152 112 75
0.016573286670658483 0.00911636138509261 0.9463916730447021 175 156 136
0.03779183860656763 -0.09896562204694427 1.0953484212233846 155 115 79
-0.05112122521246951 -0.23842641184834043 0.9054229077317418 173 126 88
-0.024521056836569525 0.08684586078112617 0.9306258842854873 240 150 42
-0.03551535946550803 0.35881844993496365 0.9598419188973489 13 7 12
0.04296527737266616 -0.15626564577201363 0.9509824814029463 157 117 80
-0.016992934077922194 0.35747675266290013 0.9681704806768143 21 13 18
0.020505021286436644 0.26003934901889253 1.0713354068960954 149 100 68
-0.052490350088064505 0.14668816078708083 0.9403330495684928 166 89 23
0.023744683564660467 0.13253367934267585 1.0358238537905047 235 147 42
0.016245602897078472 -0.18159299942530768 0.9223191281390539 156 115 79
0.04437091630392875 -0.07074402623201465 1.1174160363405266 132 95 67
-0.0520748220526486 9.419299382287263e-05 0.909406450017317 154 109 70
0.031398147181670236 -0.009360982394495598 0.9777260853731565 165 122 81
-0.031230747324519397 0.30110238183957405 0.9642833685764531 151 104 71
-0.01757000443980647 0.14886911531902336 0.9543882309501176 229 143 40
-0.019920915455026528 -0.2720571105804085 0.9259735333208593 135 81 55
0.00781377650697997 -0.11325067244826802 0.9071059227945095 146 108 75
0.030704585815889713 -0.1459198804539686 0.9369830175882444 160 117 79
0.008892248994221174 -0.11501824685108789 0.9100986981178163 142 104 73
-0.01880727883517158 -0.32398311573966243 0.901347563153404 59 38 34
-0.01939697615330923 0.13954607940791866 0.9465001648646411 231 142 39
0.03178560866192003 -0.16530412547661003 0.9381798493943969 163 121 80
0.004380465398944126 -0.10766656815775275 0.9044041124679418 155 115 79
-0.07442149765526936 -0.13449059014162662 0.8494825611064722 176 131 88
0.044937027134421104 -0.09186662073392786 1.145353108855692 165 121 83
0.02973589170086277 -0.09326919990259014 0.9381235328572203 157 116 79
0.04303544662815967 -0.19775384313436906 0.9515387914636068 160 118 81
-0.027311995835732978 0.21226587122041624 0.9467134944225294 179 116 79
0.05875980310244149 -0.059820205274052754 1.1354310011414288 115 78 56
-0.0307731970416144 0.011591471048984765 0.9210117218211852 163 117 78
0.022545779323708527 0.15891389935464698 1.045206383698301 184 125 94
-0.05989113802617867 -0.15578194146020777 0.8505090472916806 167 123 84
0.03658013614601668 -0.07003773379316611 1.1159030565441663 127 94 69
-0.03117949214447629 0.10639864072119819 0.9256711962495724 244 152 40
0.03679892056843161 -0.07855223202053985 0.9451130981941602 157 116 81
-0.0047194259919807816 -0.0811025389773209 0.8982943403637612 165 122 84
0.0254066624437282 0.037835590499556954 0.9806115781235539 220 196 170
-0.035309390067601885 -0.028982966963429682 0.9069251491650688 147 108 76
0.03880464755415593 -0.11351691555418661 0.9482002402750992 156 117 81
-0.02752245108096484 0.15549101271863688 0.9400627247426697 239 149 40
0.03275256820614842 -0.17779967064375235 0.9379204179401902 159 118 80
0.010787449747241414 0.16214939013866986 1.0421299840925589 166 115 90
0.04396027075484855 -0.05283279277083922 1.1859879823151513 126 67 54
-0.034774358987229234 0.3574622207323104 0.9585557510673934 26 19 24
0.01870967970050258 -0.23737404489854708 0.9331758899363084 163 119 83
-0.0540856508113682 -0.22184643613520755 0.8808776553150889 172 125 90
0.026432681871430563 0.014898627064605383 0.9930009987289631 252 238 227
0.008006285361390898 -0.1680632943609306 0.9001571352385527 157 116 80
0.058661772245083496 -0.054033611006041794 1.2151284483265707 238 130 119
-0.01091119843889819 0.32557441642332857 1.1141593216671868 40 28 31
-0.001632458982939404 -0.11718632990222354 0.8960109636887312 160 119 80
-0.047204813975659184 -0.004698830988133236 0.9111554765444995 150 109 74
-0.008707056286268075 0.13028186083143023 0.9596872718764402 219 138 40
-0.07051046342003606 -0.15775211492037092 0.8540170726513896 176 131 90
-0.021597701628101165 0.225524568022239 0.9591591050877707 165 111 78
0.032807758095419824 -0.17260592856048057 0.9387748932288128 161 120 83
-0.01872515197590926 0.1031448771397359 0.9380014085685909 233 145 42
-0.16477514858230244 -0.04229344341826751 0.8152290116674342 194 145 103
0.02708214125193865 -0.23291946174597425 0.9444132803479833 163 121 85
0.018298186882007766 -0.16987352235710967 0.9259499484665015 159 118 80
0.04147130134899305 -0.10138729619055482 0.9637072667032942 149 109 75
0.008935272602185898 0.11648994294848461 1.0227144497568712 210 122 34
-0.015186410714095586 0.15290015101308913 0.9601681162723167 218 134 41
0.020489860476959134 0.3339012432054664 1.0890582644373088 36 24 30
0.04020354762958019 -0.10149489419803578 1.1303824868969548 157 111 77
0.02610338182343702 0.11968197552593189 1.0361419474333506 227 142 40
0.045060424531907985 -0.17499085660647737 0.958316070904644 154 114 79
0.014748642982055735 0.13696706217368884 1.0315495064292113 214 129 35
-0.011922494710921137 0.10998555814911634 0.9452054444484942 233 145 44
0.03479082287270545 -0.23302019718525394 0.9672899547335365 167 123 86
0.049415121848573496 -0.06605062212109288 1.1798919300860755 190 112 86
0.003111132714821678 -0.30974562745733797 0.9251428504294282 31 17 18
0.00463653608223706 -0.05016554123593191 0.9140297101111915 136 98 70
0.013223507932747442 0.1982957960448225 1.0454774661666197 153 99 70
0.004944220369959848 -0.3020512153844763 0.931590247611459 38 23 22
-0.027195638603662725 0.09880921195848637 0.9291132216751983 236 144 41
-0.012484757869145168 0.1432666741588346 0.9621765943174203 216 133 37
-0.032011406863951083 0.27929175910525345 0.9516985079907111 165 110 76
-0.008542069443715 0.07424115635431328 0.938760000619657 230 147 45
-0.024164810129302012 0.20449207574964173 0.9449029242770304 186 118 80
-0.011861502597095704 0.37308756847640895 0.9744109235183265 21 13 16
0.004087140549110659 -0.07039582210284626 0.9145267596979896 151 112 78
0.030622318397417927 -0.10537731592398145 1.0990680348325381 154 115 79
-0.030975067873202096 0.2796052717197322 0.9527770032358434 162 108 74
0.030623835259229716 0.13531416902735072 1.05037830310779 246 152 37
-0.13303593231076816 -0.04404599046558144 0.8125403695137702 170 127 85
-0.025106519700688137 0.15771896626162948 0.9432270727956131 250 157 43
-0.028431564403578437 0.2155556829445229 0.9493138054910398 175 109 78
0.05129947042353479 -0.0580959642213761 1.1879747299451957 201 109 86
0.04379167061434759 -0.13604386179600925 0.9564254432722862 156 116 80
0.02731979837742474 0.1499000835921607 1.0484353115451766 131 78 56
-0.02382787310559814 0.29953300300953495 0.9742282984244076 78 62 44
0.018955013909745428 -0.23924586157747138 0.9390184479847284 160 118 87
-0.0018024787166206547 -0.08310363773499757 0.9021623535035772 162 121 83
0.03488216408041588 -0.13900354949088622 0.9399305840667046 161 119 81
-0.026722582941973508 0.24286840594805995 0.9530185639463603 163 110 74
0.0456065847827177 -0.15035868752281512 0.9540659616188399 158 119 83
-0.013961764844730986 -0.2759162600833746 0.9324317581441225 130 79 52
0.003980572014350705 0.062055235359842136 0.9657615680351209 206 129 41
-0.026334247961856124 0.23102398038949287 0.9520096377313156 168 105 72
0.016006339243273847 -0.13870733361094018 0.9167659248758023 145 106 73
0.018297149360048486 -0.19783430099758198 0.9232529881605397 157 117 83
0.023503643210837605 0.28883574611526447 1.0870977552978527 152 108 78
0.019589529787411058 0.005141414374840691 0.9522167649248204 163 118 81
-0.008773376381614397 0.12069074260450548 0.9627694213077946 218 134 37
-0.020547889887404205 0.1485560078351167 0.9449832017826421 230 141 35
0.04546315052533776 -0.15461738965085997 0.9594778682485782 161 120 81
-0.07385014552073459 -0.002164523643985328 0.9179873420531486 143 102 67
-0.022546401457599927 0.1896222051853315 0.9700952531195715 167 108 78
-0.017254291484149635 0.08200669632832636 0.9419103666970886 237 151 49
0.0012811356738461638 0.05851445709132323 0.9617826846772588 204 128 44
-0.03200019813956647 -0.07655094110240077 0.8932033567463953 127 90 63
0.04029871660917598 -0.17857342595491796 0.9453210225944376 161 120 80
-0.01376659670473131 0.32967587961676453 1.110858615420058 46 32 37
0.0567664150998421 -0.06043416088976384 1.1992127659569252 151 77 58
-0.03401842301895617 -0.040693179162253144 0.905795347012375 137 98 69
0.049009686590536804 -0.17955600548545428 0.9627516132602907 149 109 73
0.018381533531322544 -0.10346274419272579 0.9310166702458037 164 121 82
0.019265124290782577 0.10539016072168143 1.0194751773991273 215 135 43
0.03708983995900728 -0.1538619330028134 0.9426909009186596 161 120 80
-0.009461622261610902 0.12672561197177995 0.9602749907813347 218 137 42
0.02906429099886783 0.20046388328573744 1.046888179782925 173 116 81
0.05267353970676406 -0.08645520459394691 1.1507981871358768 185 137 91
-0.06700669057804207 -0.18975583173192873 0.8692853485944796 170 126 88
0.009167775223681162 -0.1830638423443175 0.9000648546080463 154 112 75
-0.17206186990602013 -0.03435882942380177 0.8091358007957448 198 113 89
0.0112889463675174 -0.196577855826487 0.9096168502057751 148 108 74
0.011809510124797013 0.20675999937874276 1.0460254902515036 153 102 74
-0.05457069106971281 -0.15932379324872667 0.8460432691720343 147 107 75
0.010395651467822235 -0.015920023922295738 0.925663064895393 149 112 79
-0.02539751913700895 0.15706341452480324 0.9396189618146003 249 159 43
-0.18376279856843392 -0.03563653700310397 0.8070428298198902 172 79 64
0.029620503147040577 -0.011018345174984907 0.9530361241753034 162 120 80
0.022449131254932028 -0.05425502463642412 0.9350275275613066 157 115 78
0.011921570705214077 -0.16670672449232893 0.906949968581293 153 112 77
-0.01191374683753931 -0.2823578635960919 0.9294941403494049 70 43 33
0.01192925789545112 -0.1517066482856714 0.9144759680207818 147 106 71
-0.17122039227613667 -0.022016948519691444 0.797008176936977 197 99 79
-0.019543571567708168 0.10050526438455787 0.9363551876294437 235 149 46
0.040440411049069855 -0.11941413038861617 0.9504874315820073 154 116 82
-0.02657997311820813 0.152721500878066 0.9399876334049471 238 149 41
-0.02234680009016686 -0.3104698355243445 0.9028646779053894 63 40 34
-0.007428810611211338 -0.2594382591165684 0.9255455063073748 157 110 71
0.022042510794702604 0.19551164944588154 1.0472609632957997 163 111 79
-0.022499889707855898 0.2002809719501751 0.9709412357188654 163 102 74
-0.04617368888491271 -0.031088096316834155 0.9072403425504597 145 103 69
0.0565788834017112 -0.07270322914365039 1.1946111305298184 166 84 64
0.036176290086091224 0.13730842085717104 1.0648539041970921 127 146 22
0.01521147470807955 0.13562597709003957 1.0298354844229558 227 141 40
0.023522574066810388 -0.11826939193857182 0.9327795035628179 153 112 75
0.03683319223258211 -0.07919118634448566 1.1159387667621223 138 100 70
0.038240853364951526 -0.16856479078365724 0.9470379156674009 160 119 80
0.03521422736971984 -0.11268793966665497 1.1005333837948073 168 127 88
-0.08000305825867626 -0.13004096031068588 0.8476237166827875 163 119 83
0.04442159268699063 -0.1112030881674039 1.1093993969711742 159 118 82
-0.04448589056823685 -0.021268944353673214 0.9066887404479437 145 107 75
-0.060833632708054475 -0.10061258757978057 0.8464499629532793 130 94 66
-0.16874820510724056 -0.024983353546114105 0.8004781255619414 201 111 86
0.05703257598094988 -0.07220659648212463 1.135426888359132 131 93 67
-0.029254933789752312 0.26564563146812387 0.9565609833141255 158 104 70
-0.005480664616860796 0.08861167409016614 0.9558690487253887 217 137 43
-0.030264134046646324 0.15832678248438561 0.9318652716658224 249 158 45
0.03332506470815749 -0.05643969892300744 1.1678219451242253 182 118 93
0.018355486562476864 -0.06125137182457788 0.9320978861006615 160 118 80
0.034589525472712795 -0.05484848503469705 1.1806763365824284 176 104 79
-0.027228112396117814 0.25914548894484185 0.9588232999266533 159 106 71
0.026408478437065133 -0.013937147878521782 0.9575250811235734 158 115 75
0.00508332346321799 -0.07801561849339297 0.9108941707387354 150 110 76
0.0427763747403394 -0.134233043573829 0.9544151523809329 156 117 81
0.011150567209025408 0.11344712876282552 1.0230600019549667 213 127 35
0.0543047458968819 -0.07219133799757578 1.1253124410882753 147 109 76
0.029713778527203905 -0.14971511477816415 0.9362532365339722 159 117 79
-0.015148861788745234 0.11567829659354893 0.942433040536819 232 146 44
-0.011124655179957109 -0.2759503607454789 0.9318748813770765 133 83 53
0.04299475786216645 -0.17732661163740182 0.951760513275603 161 120 82
-0.0284724210820399 0.16592870104708118 0.9389545470509206 226 145 53
0.044494240530309426 -0.05328789417843262 1.1682118249961795 176 115 88
-0.032913525521849465 -0.011580177239058919 0.9104097679548876 145 109 77
-0.07647096977321662 -0.11078759295257688 0.8278963658184394 140 101 70
0.0334596053066327 -0.023356022043225535 0.9596901356551895 140 103 72
0.03217466293717296 -0.11324095108562 0.938617686546528 162 121 82
-0.005010634418882983 -0.2688177382346072 0.9397632203991628 163 115 78
0.01566191701389312 -0.04422342398131563 0.9266880878179566 163 121 83
-0.04351146477028544 0.326782779916718 0.9542997217532075 183 123 90
0.03409651279718625 0.2025827166030421 1.0551746914704336 170 110 72
-0.03177113600257451 0.3097977794239227 0.9597473939356582 158 113 78
-0.020990064703468116 0.355551704496493 0.9586335679613647 50 35 36
0.02666866726780777 -0.09233393771320532 0.9358088824534077 157 114 79
0.03375758317307036 -0.2172007898040868 0.9400242711156215 164 122 85
-0.0008614649688868485 -0.005035250442710523 0.9291329488277735 167 123 84
0.046723337067039114 -0.041993467206672845 1.1758590127389594 159 97 75
-0.1340119755040864 -0.027103903796899496 0.8236524315582477 133 91 69
-0.025506723747575524 0.10546467021195703 0.9310396155866435 236 143 37
-0.021153201892616495 0.12500352844290955 0.9391874494305803 235 144 36
0.037189660966281526 -0.07764975376826871 0.9452840510408483 156 117 83
0.0031010609797971636 -0.1160990606778718 0.9001975116124609 163 120 82
-0.02269333251309283 0.2082114362568371 0.9697258479386394 164 107 80
0.018709787030034904 -0.24462430498813478 0.9540165766700632 161 118 83
0.013031569944843426 -0.22660743338319056 0.9158662766814383 162 120 85
-0.06110668712541028 0.0013482281375002897 0.9196413093174007 148 106 71
0.01746483540048294 -0.22850292815457768 0.9220275425871404 158 117 81
0.0030997066528569636 -0.052493070821228144 0.914892953428947 148 109 76
0.03396240616189933 0.35750975442809974 1.067838865709412 0 127 0
0.013762538801576874 0.12112522628761596 1.029786853200213 212 125 34
-0.022190905386589695 0.185537106900256 0.9743332681865354 155 102 77
-0.017820125126251505 -0.31416323838158994 0.9072917265253929 50 29 24
0.01910594243669528 0.29905198287469564 1.089320994009155 147 108 79
-0.0017960589382422026 -0.08398731950777553 0.9010007460833055 163 122 83
0.05069304366381056 -0.06266432944632369 1.1195352367585394 110 72 54
-0.13113488761088865 -0.053160776748548896 0.8166997837809596 148 104 69
0.02924635987748246 -0.11724494334587934 1.099813952452091 168 126 86
0.01426240796160174 -0.039414973964478406 0.9245046639165774 153 113 79
0.02787780570732337 0.1286269911810634 1.0393382430545979 234 146 40
0.03393665657133856 -0.0988679601330902 0.9414023133639164 162 120 83
0.029669295748428276 0.3130777238141771 1.0960381267148593 92 55 47
0.03387363203489647 -0.11783286554095325 0.9404756410432165 159 119 81
0.022945925950110125 -0.06084053397325818 0.9353745276333237 155 114 77
-0.06406446349716313 0.14721993402377653 0.9439804155426516 185 109 33
0.006141167176330764 -0.3157334837831879 0.9275650838521201 42 26 23
0.020381029308314823 -0.14700837981316245 0.926172315680461 162 121 83
-0.005678537752211191 -0.24737133015384472 0.9229464898178317 160 116 78
0.02449628981133235 -0.16646022386284268 0.9295091827719278 160 117 80
0.04529415513284453 -0.1588873749995406 0.9577990972746953 161 119 82
-0.023579867800471676 0.1795672065417299 0.956842921880379 179 117 89
0.008608324326863972 -0.1667046842369469 0.9003341782784491 153 110 76
0.015314502414928526 -0.18428986206771442 0.9205886230213818 160 120 82
-0.01961548535230208 0.2183485813367963 0.9579504184515968 167 113 79
-0.020436315297789994 0.1296613403511228 0.9407442979056835 232 142 38
0.026998553012429084 0.1163430846171579 1.031999286841188 227 141 41
-0.06438698546711921 0.12345632929859099 0.9362810857793239 204 134 62
