ply
format ascii 1.0
element vertex 677
property float x
property float y
property float z
property uchar red
property uchar green
property uchar blue
end_header
0.037653047187986496 0.13699708504734157 0.9967346770466474 243 151 37
-0.13508989500154053 -0.14144175376711765 0.9607595645464055 135 98 68
0.049160406077571855 -0.06895787035219071 0.9743420169422555 120 82 59
0.02086578276681797 -0.1615343086466891 0.9275612918766963 131 92 64
0.009513888779184009 -0.2833151619824417 0.9847378996864159 50 129 23
0.08040588008239975 -0.122724686453354 0.9354323579007275 152 113 80
-0.04859342186193483 -0.17872044920170274 0.932013136421348 149 108 76
0.06886740486051406 -0.19588028600870488 0.9421505159024399 164 120 83
-0.04267267077497729 -0.30803151982316285 0.9380797086294296 56 35 32
0.09973764650653526 -0.10306660083683034 0.9454543715827676 145 107 75
0.043421674012988326 -0.1549235613018352 0.9349878844353532 114 76 54
0.02076298551254516 -0.1663838726347674 0.9257681021413048 129 91 65
-0.08876121777762948 0.12559631642909927 1.0035444396368292 235 148 44
-0.2138810751021532 -0.06337061943770869 1.0425523813710855 125 92 66
-0.0026238972282281187 -0.004748405271080866 0.9526284174201649 164 120 80
0.13350600269958102 -0.0957661289922581 0.9793186690250281 162 121 84
0.04613432349918293 -0.08287258724491364 0.9636748183229126 134 96 68
-0.10762471069407724 0.31031426303274884 1.056300534408037 0 125 0
0.013166040626087333 0.08568136973168487 0.9846160928883452 228 146 48
-0.10509443532811014 -0.19432879783081738 0.9443247664787832 144 101 71
-0.0069349901329886976 -0.363118334569567 0.9467383980725929 0 127 0
0.011062018125081632 0.0996167369424679 0.9893941359600672 223 138 39
0.011824561265380845 -0.28744756624514306 0.9835568883358097 141 129 65
-0.08187716194666048 0.03734170189621013 0.9885058980224006 226 204 189
0.06117913805952507 -0.17454768058129103 0.930495619369395 149 109 75
0.02657094302697034 -0.09916998994087112 0.9374885626976168 150 111 77
0.078260199084065 -0.14632746819124315 0.9329298757746181 163 123 85
-0.0737823189187019 0.11261932772011381 0.9968479797490832 233 145 42
0.03929320939541591 -0.22499173407048495 0.9328195103177023 163 117 81
0.10311780822226946 -0.11057359328463773 0.9485072560916353 124 86 60
-0.08216325609801789 0.10668286625949787 0.9979683633849589 241 150 41
0.08719585655987094 -0.17357109879992563 0.9542711503305266 174 127 87
0.07242138773433107 -0.12417028489393354 0.9396442594040664 133 94 64
-0.07864355124346563 -0.0761830700523213 0.9506250692491229 157 119 84
0.038356677867488115 0.3205585498222713 1.027509382527415 17 10 13
-0.023895078222937953 -0.2975335775659795 0.9323628710683632 37 23 20
-0.023225541351357664 0.03792793394452714 0.967360893844403 239 229 221
0.04480156538223969 -0.08553071519128973 0.9612377981693265 140 102 71
-0.06611958690940078 0.14227734815692145 1.0034458235466819 224 141 42
-0.06475738465706453 0.004362365721925558 0.9664241468052358 204 184 161
0.05506258981053224 -0.1645170852650084 0.9309656558754518 150 110 78
-0.08103107038956904 7.632524718414865e-05 0.9791506619407785 169 125 86
-0.06648617463904162 -0.05527674683431465 0.9510636532565716 135 97 69
0.19542422220949593 -0.0356320065170032 1.0049803251296985 181 92 72
0.03251276837062359 0.07770195076724855 0.9846311665505322 231 143 37
-0.05134322646052047 -0.045513111754268136 0.9439160547829311 162 119 80
0.06876899697876447 0.3434309796803036 1.051978083040351 77 58 58
-0.00527353922006866 -0.2393031546386436 0.932955903848639 166 121 82
-0.022946075376269477 0.01085760901618482 0.9595129617797161 224 211 203
-0.25886190420452815 -0.03877052150128431 1.0751334208680563 50 121 23
0.025048153486785872 -0.13118341925582377 0.9305526185864524 137 98 69
0.04504552045155895 0.09493556459790904 0.9961866136446076 224 130 32
-0.0338768099775149 -0.2498838478892851 0.942131530181007 154 112 78
0.0607533531623487 -0.017946856513836873 1.0058067252784355 150 110 76
0.01661545548055178 -0.034373244372766384 0.9460613899006302 145 108 77
-0.011425862370723893 -0.33877741605123346 0.9316884539051563 59 35 31
0.030281329010389213 0.18600711001144818 1.0027280482641292 178 115 83
0.1400245896033588 -0.09043342387886621 0.9829225092280998 161 120 82
0.07767255793012394 -0.1527082042588469 0.9327689666897548 167 124 85
-0.14672771090718975 -0.15052053446110286 0.966198300691008 149 107 74
0.06076766644307776 -0.13478278993770781 0.9408248728525439 130 95 68
-0.05120649296281115 -0.0078046491653770735 0.9572044035628949 166 123 84
-0.056234579862365686 -0.02314887111007673 0.94996843310097 128 91 63
0.0204341045722083 -0.0966072480342996 0.9343943783239569 156 117 83
0.06806388697320148 -0.19236528238432865 0.9392278521557518 165 116 81
-0.03047526283123194 -0.3161582439528755 0.9273263731139532 57 37 33
-0.012269286870789244 -0.2822175744123713 0.9431543310629783 74 46 36
0.1989377821474839 -0.03819928313241327 1.0063946924681337 200 111 86
0.16885902841334535 -0.042075361248205406 0.9968759192661137 156 115 77
0.03503648860993754 0.02161722226701255 0.9759819809405511 245 229 217
-0.07937157784571475 0.0834576624783017 0.9936165067509636 244 153 45
-0.07050040363124288 0.18867943820125183 1.008723753414552 168 110 82
0.0070552454833500335 -0.30062356037898674 0.9464049390505254 81 53 44
0.03398559733172129 -0.19198122269125797 0.9222976950637077 165 122 83
0.027746052602872648 -0.11581529225855157 0.9364500642487844 150 108 72
-0.11168683379915485 -0.18059126653614596 0.9471359158313205 139 102 74
0.13696964450037655 -0.08876863715960923 0.9770669946275949 161 120 82
-0.05705973345681935 -0.03254188465694395 0.9484971891980323 144 104 70
0.038082427441675004 0.05142997033913501 0.9835281240356766 233 145 40
-0.075979604998683 -0.192019490267991 0.9342336343956872 123 85 59
0.032790137631890266 0.11721041820745765 0.9918625595099577 228 141 39
0.02660190898331248 0.09315168853939212 0.9869088074248374 221 136 35
0.1165640429755909 -0.09842510215086017 0.9592969498987581 137 100 70
-0.10450425427492002 -0.19287667284833682 0.9436752676875273 142 103 73
0.045447689092864424 -0.14980257187831972 0.9352246488451268 115 80 57
0.07653286695952542 -0.10090708736984268 0.9504752987214171 130 95 68
0.05895269433132737 -0.18378341066402284 0.9301365021256994 142 104 72
-0.05373321683361099 -0.32057219122684355 0.9546844992227584 73 42 39
-0.18704748718309133 -0.09104540700553422 0.9979873596062122 141 104 74
-0.17037938493274873 -0.09008384696619434 0.9905307062747327 107 76 55
0.029703898049649347 -0.08737328608402681 0.9419560351192963 147 108 74
-0.2679008469086485 -0.04548931041593799 1.0795513887041965 10 129 6
0.0986421679537717 -0.09121190653045709 0.9511538744150625 149 113 81
0.06098101758160265 -0.09927415692880516 0.9910103930037519 89 60 48
0.06733829604871344 -0.17934526251866292 0.9337847624365541 156 116 80
0.22415479556290516 -0.007926352641253655 1.0138220487934595 85 126 45
-0.06260011494204029 -0.06562051752646907 0.9479006301434811 147 108 73
0.06930404192825834 -0.06336559292847457 1.004289317793252 103 84 53
0.03863795529295961 -0.13783970082007188 0.9423006923110283 134 95 66
0.054363033929832584 0.1512373688141104 1.0039877351880453 68 92 18
-0.14328530901562936 -0.1632091416347794 0.9690681765393651 187 132 95
0.05197199432487612 0.12268922176142703 1.0039824832532058 243 154 42
0.044568524172276115 0.05920419644899041 0.9892831321127303 235 142 34
-0.16716343016944737 -0.08335566956249213 1.0049055514036833 107 75 53
0.0229915222145992 0.03788317485535114 0.9712380615568271 206 168 138
-0.0022040934907346125 -0.23812189921955437 0.9309488812803306 166 122 86
-0.056039257531983834 -0.03559182523910444 0.9476519502006759 144 104 69
0.00590496655062886 -0.2042096970016754 0.919408635850542 162 121 83
-0.1308729560891596 0.3255369553351672 1.1081408015475407 42 64 34
-0.09119063923880354 -0.23208276281961102 0.9485328120571721 150 108 74
0.03769458622752876 -0.14069530631604488 0.9403166267932097 142 102 68
-0.09768029784076857 0.03955747408151917 1.0112494882160155 245 144 39
0.05700330686570745 -0.02087531508564632 0.9965896026862702 147 110 77
-0.008053133572285603 -0.1705116748936943 0.9209735100322768 161 122 86
-0.06809719190965831 -0.019152570533159375 0.9595014231810214 115 78 56
0.08856632760870692 -0.13213587619057166 0.9392009702713682 167 126 88
0.1616385170040531 -0.06370162501522797 0.9936838741138146 144 102 72
-0.1675535234703694 -0.13999178581553565 0.9891437107545091 163 129 82
0.06644050564170262 -0.22025379556434835 0.9558980985468758 177 131 87
-0.045944409214601 -0.014164905565653226 0.9526763480575098 160 116 76
0.07941061266364631 0.3379313760211073 1.0839461019445016 47 34 43
0.016245384097034535 0.13732405786503843 0.9997681984168619 229 143 42
-0.08898777611542251 -0.23979730570020782 0.9568081227717293 172 125 86
0.08535574112141198 -0.1102904297063491 0.9423525932435465 150 110 78
0.004313192666521402 -0.3380980394817888 0.9384994357910957 63 39 33
-0.07931909421819837 0.07480843906373126 0.9936482371787857 240 150 44
0.03527111561992513 -0.15813371040710658 0.929754146154679 134 95 65
-0.044894104930094235 0.06181760512320072 0.9794541360845549 209 134 46
-0.06931442099922479 0.18564856765779564 1.0084793548181212 172 113 82
0.05177222778456814 0.12339184017733922 1.0030721167708356 241 150 39
-0.0120045251293469 -0.27969173115131324 0.9457775490925057 103 65 48
-0.013972006221873409 -0.14987708833784705 0.9238041714413785 161 120 81
0.042345685568372884 0.07409807202255651 0.9911194204661276 236 141 37
0.020659579268050517 -0.11011541546905206 0.9337505900228977 155 112 77
-0.013319159947169089 -0.24639049382442813 0.9358258987042587 158 115 82
-0.08579538268262787 -0.039598673738290784 0.9636935353759636 145 107 74
0.030427123087130928 -0.0031491762252790455 0.9650023458364089 159 117 77
0.07258995858052283 -0.11816455624045334 0.9413755915647473 130 91 62
0.025464097807354858 0.0768014427185275 0.9826608875885438 221 138 39
0.005052464642992855 0.009557997294277261 0.9606176924604091 230 215 206
0.033536468542365805 -0.046063479167499324 0.9475883643283899 150 110 76
0.1120901700255962 -0.09277939412730317 0.9575337125406557 133 97 69
-0.019443670393954532 -0.34232595877692323 0.9291131550368942 55 31 27
0.08757453036251069 -0.1746124654135243 0.9552322028429985 179 127 91
-0.03113325277762881 -0.31561965858002794 0.9273356900214791 46 28 26
0.013507930104788134 0.2268646783317915 1.0184972300028943 67 111 32
0.029875453516541802 -0.20251587289230305 0.9215626092580046 170 125 87
-0.025687868880965737 -0.30929533377876145 0.9295202089566751 37 22 19
0.04561642145264164 -0.06790565834928924 0.9584841284732498 100 64 45
0.06187882606829761 0.0669405888100671 1.0071447428236635 216 123 38
-0.13043555070346 -0.10793448454588847 0.9877900337570287 4 127 2
0.043392746948864455 -0.2138341072372888 0.9290956674605082 162 117 81
0.0654874028338134 -0.08673650303201313 0.9955518612003029 117 80 54
-0.008934446900319942 -0.28275962725815673 0.9449913472419376 78 48 35
0.08943338457466138 -0.08742095201434688 0.9556184639974042 139 100 71
-0.05542267424537984 -0.024866373083904072 0.9502050274712545 129 90 64
0.023912709331290822 -0.10405836606634077 0.9364246517316286 151 110 75
-0.08427166487666313 -0.05300960578147969 0.958663224379517 160 120 82
-0.04260750182438183 -0.32107424766982956 0.9294291136958079 60 38 35
-0.22962677058493783 -0.06953666094866726 1.0384314964182384 204 121 88
-0.013511003292224384 -0.21634501998831365 0.9207855706802578 162 120 82
0.13830056277117633 -0.04243197848585964 0.9968723250015569 109 71 56
0.09045123603783295 0.3369341680797431 1.0950023323502196 34 20 28
0.023763106844386563 -0.22845934846780044 0.9295618614827184 165 123 87
0.04457474776938176 -0.1864846304873514 0.9259631573549614 137 96 64
-0.004515657821577243 -0.3342798468607264 0.9300973624473188 62 37 32
0.09240431292233266 -0.1290618429292051 0.9419123223865512 157 116 80
0.06848801083397282 -0.13925551304154818 0.9352686059661536 146 105 70
-0.10402906010384227 0.3099551668256912 1.058190072180526 13 46 9
0.07221546006173504 -0.1786999991476183 0.9366365280815199 172 128 90
0.10298426115590424 -0.0659943129090053 0.9761570445472261 117 84 64
0.09018345719246126 -0.1188113957573142 0.9387640476113259 168 122 86
0.02005477737993718 0.17566980171332583 1.0058210513803827 172 115 84
0.014718758561237678 -0.21572076940467283 0.9212184730801897 158 116 79
0.10432262048753155 -0.1164939209483202 0.950522804528055 119 82 59
-0.02265452304965761 -0.2730262635658871 0.9469489098353829 150 87 55
0.043116161893877014 -0.010636788692319014 0.9765069978548326 159 116 78
0.07150406414347264 -0.15322008675327553 0.9321059132338697 151 111 77
0.06412548871058962 -0.1728178562191966 0.9322895072991036 155 114 80
0.031309633297791746 -0.2251325028797723 0.9299196953759322 169 124 86
-0.004779459625467628 -0.0019152026065367377 0.95337307926933 167 122 82
-0.11795163466963111 -0.19710442503748352 0.9496469165244104 159 117 79
0.023790590603702113 -0.20873630978846133 0.9205605673452472 165 124 85
0.06546800789913745 -0.18631267541856167 0.9349232750091917 158 117 79
-0.05736733138755599 0.1791467055387213 1.0216278120776343 157 106 79
0.12886730187424936 -0.04718491566321662 0.9925362721857719 119 79 57
0.03699602668143044 -0.055672390372799176 0.9495612071893074 135 98 70
-0.02583378529747256 -0.33896587947830215 0.9267057866946447 57 35 30
-0.025882985821070265 -0.22868668845567156 0.9259959574194153 163 122 83
-0.07268129534126784 -0.13218516786633963 0.9397764177391579 159 120 84
0.08073376951507295 -0.09612302528946275 0.9520557217115665 134 97 70
-0.09488363392185042 -0.18004600405768867 0.9433115290440837 152 113 79
-0.23673230070822313 -0.08283206211186762 1.0693776107852637 202 111 88
0.026582193430731836 -0.23055100694206287 0.9336683246050177 169 124 84
-0.14745902036035755 -0.10130848412639042 0.9811486010758276 113 78 52
-0.1003261094221263 0.3332217214379741 1.0353226683409016 54 40 42
-0.050594844540946295 0.15281120343047638 1.0133828277701116 152 92 50
-0.12006419598561459 -0.1905044346643289 0.9492863138021083 140 100 70
0.04213393882046127 0.3412940506004094 1.0220576818996696 47 32 36
-0.04028811346364879 -0.35749209216850475 0.9388390193283511 9 39 8
-0.06070383247143987 0.14821301642814147 1.0069120355932342 219 134 38
-0.010897992683337814 -0.31513351130007705 0.927754631331027 46 29 29
0.04351150620388886 -0.10874464983066655 0.9492228386333083 127 91 64
-0.04597143445624905 -0.33081705157656166 0.9349744658240007 62 38 32
0.03840345327671351 -0.020054787158567816 0.9675586744694347 137 102 73
0.2057225488242987 -0.009536494665990897 1.0081524989523745 162 92 76
0.059723317891003526 0.2667897172169173 1.0315530980817627 104 104 50
0.022278741009045904 -0.1415656396020233 0.9288133651024253 136 96 66
-0.07375148124383266 0.0698983078108953 0.9900717799807367 236 148 43
-0.10668296117260419 -0.0693715778462746 0.9955270239104171 102 79 54
-0.013221879443682171 -0.29668215396961006 0.9346005209520691 40 24 23
0.034767291633509424 -0.1232861910602395 0.9402636199561856 142 105 76
0.027983191012283585 -0.029981328029853458 0.9498948196165614 148 110 78
0.027397359145622052 -0.03717321376299142 0.9472160267836911 146 107 77
-0.001688983291823658 -0.32013428403117866 0.9321333020317565 53 33 30
-0.015636272095301912 -0.2856327450711074 0.9383034794601813 51 31 26
0.058911245166865925 -0.22664569454632255 0.9532599501145848 171 126 87
-0.09800661951438835 0.09216997383903563 1.0051787011540319 162 78 20
0.009338835945303256 -0.2991486230254909 0.950280135846082 139 85 60
0.021723197098798542 -0.17801510530614972 0.9230571850527501 136 98 69
0.03586882023969477 0.30101974296322775 1.036543293268177 177 120 91
-0.052621676482103634 -0.02637293132607615 0.94867480088007 142 103 71
-0.014013339436167078 -0.3126900918073352 0.9265695867329419 41 25 22
0.07532034845538901 -0.11810326445336752 0.9404613688105201 142 103 71
-0.012797942106320737 -0.21961728452049062 0.923390904450994 166 123 83
0.027024480450829384 0.13295631113107276 0.9972029315531555 235 146 38
0.0037936139522739055 -0.36163426092456147 0.9563880471954149 8 36 7
0.0272298521674225 0.32498957193443706 1.0287647391288337 7 70 6
-0.1798244559381659 -0.09824067910445039 0.98896818546323 143 105 72
-0.039555292868535846 0.14736967870141246 1.0224895647282917 105 96 21
0.05846167165961914 0.0010385647339741309 1.011362605732495 163 113 76
-0.0646363174805976 0.2369494461630323 1.0280569096491896 124 89 64
-0.0579857305877867 0.08445324220115077 0.9882892656907947 225 143 42
-0.16296262307740866 -0.11536025478430771 1.0213549323349143 136 98 68
-0.08982506501635455 0.2076501193378911 1.008112240716643 168 103 73
-0.01643492984058031 0.049140619231068904 1.0635434498218181 138 65 15
0.08996459819597932 -0.116547027325823 0.9399178638345237 152 114 81
0.029579122404015074 0.11274896008450455 1.0675849364852632 193 109 30
-0.07488745437246938 0.00017863653969629119 0.9726492612207912 166 121 79
-0.20146384765533676 -0.06659341705383041 1.0440414505295255 98 67 50
0.04265684174949199 -0.09661094160574674 0.950602938630989 139 101 71
-0.07221728360132153 0.04954204604237497 1.0664353552183792 233 140 36
-0.08042192793702582 0.11813724354138279 0.9990123729056241 235 144 37
0.08372772443178218 -0.1609272683145311 0.9714239754165561 154 108 73
0.058357228684723 -0.15566053058809057 0.9322025143636964 151 111 79
0.014344179823662503 -0.32809775116758316 0.9672989438863846 94 60 48
-0.07318685111194581 0.07691030999665288 0.9913860229928118 241 153 46
-0.03656889456162979 -0.25123107152522184 0.9931458854729348 171 107 74
-0.07629662535810001 0.17974677932880204 1.0095486948803793 173 115 80
0.013101816353104404 -0.0916902797284968 1.0508361289153603 21 16 19
0.08895464494565124 -0.11896579113693526 0.9382765019496666 169 127 88
-0.10572294636533873 -0.23222247706574817 0.9823988921966115 175 129 90
-0.00805967476097171 0.13303005449588012 1.053824919545094 153 77 29
-0.09607788943028579 0.34440274932604426 1.0924020346962238 132 115 108
0.17305939557468278 -0.03655774655041097 1.0005380024342165 153 110 74
-0.00622533715707827 -0.2890371018090641 1.0074382165678228 191 124 80
0.0060419523844825575 -0.3617083524118557 0.958889137598221 0 129 0
-0.056351660183063056 0.13236769031203363 1.086266407852062 246 231 220
0.013780251806363435 -0.2928503912766403 0.9853757070851781 53 128 24
0.0715825298889529 -0.17426807140920272 0.9807674444205264 138 98 68
0.02396288846913331 -0.1683313641437996 0.9238365648126486 136 96 66
-0.23644643170902102 -0.05602967113163892 1.0650966370976802 178 109 88
0.025987396955997038 0.16506575608014182 1.0037712715427567 173 120 88
0.013045252677813842 -0.33904279939657167 0.9444429996317458 34 26 18
-0.11216401259279185 -0.19849050630767356 0.9454755725542201 156 115 79
-0.03764950979715783 -0.23883175721382452 1.0009651348491182 153 115 92
-0.005610784368874229 -0.3265500829983809 0.9297346633806374 59 37 32
0.10203326517547207 -0.10958551766477408 0.9842045657193009 164 121 82
0.03729255711358762 -0.11066209845098479 0.9450174240334407 148 107 73
0.03767207467410006 0.04252341571814493 1.0582144985038409 244 153 43
0.012134850394860872 -0.21627903735666018 0.9210599877844204 160 120 83
0.1574452794800696 -0.07678268915931075 0.9872299798961653 167 125 84
-0.045012250701988575 0.0607166727637582 0.9791102909580414 209 134 47
0.030465486533536597 0.13777760257153246 1.0742108715378562 240 225 214
-0.028767952596779268 0.10951028741026038 1.0218653900632246 163 91 31
0.011035925918848107 -0.30134682006208 0.9912477793191222 199 135 91
0.08586826116445674 -0.10830471236130217 0.9431027112882217 145 107 76
-0.07656537061246461 0.20615023646120456 1.0491388208779113 147 96 72
-0.11967583301776649 -0.1447129280627873 0.9614337693039804 107 72 51
-0.23105995385805117 -0.08388362624370223 1.0587578425562656 162 104 71
0.029139858116376816 -0.15179809919905748 0.9270990217690743 150 109 74
0.02754689559176926 -0.13079132516005196 1.0356719266630718 146 106 74
0.17863574714664782 -0.044649954823933184 1.000396101526732 147 90 66
0.021755299242685266 0.13659073548810988 1.0826244500720839 252 245 234
0.15507871073163768 -0.04787134971602211 0.9890357833132368 139 103 74
-0.03218752435400902 0.10746546593757506 1.0771158589380674 187 160 128
0.030677427109093894 0.15444492878409966 1.0035202360230255 178 103 46
0.10342874090591811 -0.06977397988076196 0.9900599891428711 26 113 12
0.21112437560131747 -0.0206004719277169 1.008180910503514 160 85 64
0.03764576672379726 0.05084932356153159 1.0601078216453137 247 156 46
0.05508243773725472 -0.2067898886865487 0.9344952525341762 159 116 80
-0.07017281970614056 0.3585056491274821 1.0333028311489405 0 129 0
0.10506653283448851 -0.09758814422574444 0.9510883601495201 145 105 72
0.06732579895108605 -0.1635068838886239 0.9898643665620491 94 61 41
-0.07848586502460203 -0.17962782892548884 0.9366614753389518 110 74 55
-0.003238051572596316 -0.26733617618721295 0.9858896009288461 185 122 80
0.09035438037395044 -0.09581387418894574 0.9479692824756887 142 105 73
-0.012646650029397851 -0.23545537984676088 1.0014172675656643 249 234 224
-0.0375241475651479 0.06607430629615535 0.9833977058701887 200 125 40
0.03681117618249035 0.036196977038771345 1.0582496051622476 244 152 40
-0.029074920966157453 -0.22911711340806673 0.9271989627420487 159 118 80
0.03790240262929416 0.0037793002550470752 1.050180389150198 235 222 214
-0.19317971524359526 -0.08637842055147096 1.0033169218033846 144 105 74
0.04235625455685722 -0.02572567360077346 1.0485595466712727 146 107 75
-0.08193657333426545 -0.04133773854829004 0.958101720621824 154 117 82
-0.17704354903170458 -0.08060108547910638 1.0301016322052938 103 71 50
0.037012006610176396 0.10094828353305836 0.9912179244092101 225 137 38
-0.06186753900100394 0.06997635972801922 1.0785445720090316 192 101 22
0.020965516254889183 0.3580903789654704 1.0264441403274758 0 129 0
0.03897488038698338 0.016578303802632345 1.0526281509561772 220 144 65
0.022260212422427178 0.14169542663144546 1.0004761905047639 228 141 38
-0.024425523058157043 -0.2707507770957959 0.9991313481897537 173 115 77
0.023048645607988704 -0.17230674542923113 0.9238298356433644 132 93 63
-0.06725699051995848 -0.19718779188445004 1.024854990298938 163 121 83
0.02178141990382563 0.037988619688174866 0.9705412338169362 222 194 170
-0.11839387422031619 -0.22217835277219067 0.9847412786642807 173 123 86
-0.07181513908916823 0.0981383206108024 0.9942480152146523 234 147 43
-0.054171810418643614 0.039453016736637626 1.071678952146663 241 145 32
0.04657579245056039 -0.14704229805482774 0.9361102361439946 120 85 59
-0.2330642534147057 -0.05695422834625373 1.0639151461384306 182 108 85
0.0019173270070434905 -0.30152983851859716 0.9405981239960592 58 38 34
0.15212150613907974 -0.06845339508405963 1.0030736954252713 149 104 69
0.060883555475746254 0.24177108459905983 1.0312627582703373 79 115 39
-0.10209044445011815 -0.21587942745403932 0.9997667698618359 161 120 84
0.0002875450063879488 -0.2926036033574098 0.9454613408252887 66 42 35
0.14809475904604105 -0.0572784035160895 1.0061914580311426 114 81 58
-0.07616755548486973 -0.0033247990276326867 0.9713086454363997 166 123 86
-0.018602754954546517 -0.29332568701740047 1.0063772374341433 161 89 66
-0.03913019585971086 -0.16445871844965845 0.9301330756255076 154 113 78
0.11718449454561553 -0.05608576518670514 0.9917531712340049 73 82 36
0.2185712055969819 -0.014301015771408075 1.0121499282903392 154 82 68
-0.09154599119592463 0.11826721269799653 1.0606358487730003 110 134 19
-0.10299472807036546 -0.2196029167528806 0.9490784426985159 162 120 81
-0.02803454443627757 0.06432817416803309 1.0705545488084744 172 90 19
-0.16887480913267655 -0.08137634983784317 1.0088212702836412 99 68 53
0.07794383871933457 0.3371697463130763 1.1171249997891732 58 42 44
-0.048621160586558076 -0.3193191264176904 0.9404932504119621 50 30 28
0.056662573572525944 0.10876280864160291 1.0434428082819087 124 101 91
-0.15076198835679291 -0.09887503517518442 0.982480313677158 110 79 60
0.14956793159885043 -0.08261079337921545 0.9926332663957967 159 116 77
0.005796123304081739 -0.23455973601007504 0.9284376019395072 164 123 86
0.06433743617016449 0.07852720770643838 1.015127012115368 255 159 47
0.0431332229207571 -0.006135911413033272 0.9758200775284729 158 115 76
0.036088896239487495 -0.2204650900791386 0.9842473544625271 153 112 78
-0.07582106612685326 0.04859655062531652 0.9878972096399561 236 150 44
-0.011075238770008813 -0.22176890557429177 1.0107764109195054 154 126 109
-0.031960651577055896 0.1400843930292421 1.052393217191095 0 129 0
0.07124027035840065 -0.1919985476834121 0.9716837315838966 143 103 71
0.05050065896515938 -0.04007673278023559 0.9712204103857021 145 108 76
0.1285905632343481 -0.05713386535487532 1.0001245395955416 114 81 59
0.0203933218382662 0.1224755437006113 0.9937049312507231 225 141 42
-0.0626130369577339 -0.13847908784635307 1.0455567589035628 148 107 74
0.003342389758520007 -0.36407389202733753 0.9596473042147811 0 129 0
-0.004962944285357256 -0.33285053179847374 0.9932198342043127 159 109 79
0.012345186994647248 0.03890912814024958 0.9683353145643298 232 216 203
0.01280854295141762 -0.2929308688783876 0.9586141784598302 231 134 96
0.153581124991612 -0.08088384083440565 0.9922467287848821 162 117 80
-0.21841504097609427 -0.0575991072837158 1.055173796363091 115 79 58
-0.08655996753700494 0.0062622882709295015 0.9923681200922401 251 236 225
0.006223869926960618 -0.2556252572467394 0.9733398857225639 166 142 122
0.04369445707220429 0.0684946490853643 0.9900906667445284 232 138 35
-0.1038488827207961 0.33603927253479265 1.0987937322903645 51 35 38
0.04128092916679607 0.03247996244059898 0.9821419919589583 227 191 160
-0.07232872146787338 0.3595860764788246 1.0507659568380932 0 129 0
0.05592543693209036 -0.14924291951780488 0.9343324378039233 132 94 66
-0.0838926488423534 0.3062046089824647 1.052427815748662 160 109 84
0.13366303299171955 -0.07801612789827364 0.972494057247676 155 111 77
-0.07540411463959197 -0.07772646030410359 1.0572344890345646 159 118 82
-0.09868752834115392 -0.15147089106149755 0.965403511234413 80 54 41
0.0628097208928193 -0.22816517890459656 0.9597203367474999 52 128 27
-0.07422271100386836 0.3389282280599851 1.034877304228469 20 13 17
-0.018102361491641596 -0.2571621698589476 0.9938305824025042 201 141 93
0.040402047067905095 -0.018722983061441576 0.9709914634595842 123 84 60
-0.07573663799378393 0.23012104233372827 1.051020744073109 157 111 82
0.0005326773552834068 -0.012851889075097676 0.9524746984998228 160 118 79
0.008936325665792166 -0.219267153117344 1.0026215194635268 164 119 83
0.0008438753775768336 -0.1742537311647955 0.920556892385347 159 118 81
0.016736677530716833 0.0019000380501670287 1.0634385285252526 250 243 235
-0.10256455629324232 0.08988812164711191 1.0168064513172033 88 46 20
-0.10616828497120477 -0.16859121370478336 1.015958992481481 158 116 80
0.0395499020623094 0.13473334142090596 0.9968528626893006 234 143 41
-0.08189015748401578 0.32847959115596403 1.0598009087057232 31 21 24
-0.046181513302061966 0.0772846884678608 0.9853880947488514 213 135 46
-0.2608635417583096 -0.06794983746306411 1.0790554572500024 134 68 60
0.0051064831506771385 -0.12173623677228054 0.9276534496387129 157 119 83
-0.1362869898916247 -0.11026137849280726 0.9894034924709421 94 63 51
0.007309058593384379 -0.014028536134905224 0.9538044311602659 154 113 78
0.0957681417028237 -0.13802876662437452 0.9627796242749675 123 85 61
-0.08987343479657524 0.14341696010649008 1.0078399429162286 251 158 45
-0.012380615465199332 -1.0912915707678426e-05 1.0776810247040547 252 246 240
0.015026583527137295 -0.20503275834303109 0.9201073449111887 163 121 82
-0.19188529086644768 -0.11689782661481046 1.0199881541426459 170 119 84
-0.08612619068001266 0.009426365181739366 0.9879546408465942 252 238 229
0.03240844173945339 0.024820734257313817 1.0589193695094727 247 155 40
-0.035145167356548206 0.00783981667822282 0.9592677551713801 177 160 141
-0.010062991715933502 -0.24574765409758526 0.9922210621889134 212 148 102
-0.08139656807418574 -0.022903606168179224 0.9692903237790061 145 108 77
-0.02651742461070189 0.07177400058520989 1.0704459052748705 170 90 18
-0.10285715370893056 -0.21285994630556895 0.9458201589193773 159 119 83
0.03675065988062825 0.010776275705273983 1.0515118848620657 239 148 38
0.07847053271748856 -0.09039687782217717 0.9659039910349283 93 63 45
-0.005380855721154342 -0.22744606091122344 1.0053258320688183 209 194 181
0.014212460419967472 -0.3342830549967137 0.9468678516649722 5 119 3
0.0359533373589897 0.2121728397232422 1.0035086265319348 170 109 72
0.05948736515128423 0.32966082236642147 1.0363173026474553 26 17 22
0.05028539090745889 0.0021814470050731576 0.9944891889090802 165 121 79
-0.053027777527566405 -0.15187415720319325 0.9333952703643581 148 110 77
0.060380564607382156 0.2606345434114214 1.03182756808155 72 116 34
-0.020375855285769472 0.03736400632172808 0.9648153486861827 246 237 228
0.20277227276834844 -0.026091406635025335 1.0049148952818887 166 113 80
0.08969909355026602 -0.1673472343008706 0.9642807703137122 81 125 43
-0.08296496317971094 -0.01640210887958677 0.974076344922206 164 123 83
0.07731030647390179 -0.17385384088723396 0.9392250255293894 172 129 89
-0.08225012724571389 -0.20510593513316236 0.9359801246523143 142 102 70
-0.016852522141194308 0.003460345123214012 0.9550579841885797 164 123 85
0.10335602523174799 -0.07189504428376627 0.9676476443682148 136 97 67
0.051421784673503036 -0.030962475605987423 0.9772223340630714 142 106 74
-0.0811519478779926 0.33229546901602014 1.029980489396743 12 7 10
0.10855769186115295 -0.1104714052185538 0.9555069949693515 151 112 77
-0.042218534547422616 -0.01229085933920789 0.9522761095126235 164 122 85
0.01579147654036599 0.22453924709363635 1.0103728808718422 10 126 5
0.009052898592846411 -0.13147180148133858 0.9254839916494331 158 120 84
0.04518802423542808 0.3127697401753021 1.0308130894481062 111 73 58
-0.06255373691948507 0.04674498949224041 0.979555618394868 220 138 43
0.06861267537463923 -0.17918593875300654 0.9333729062215503 164 122 82
-0.08504905184896129 -0.23822931211040832 0.9523111501207746 154 111 77
0.06875530107847781 -0.14620711116659638 0.9326908094549194 149 110 77
0.040315548990881384 -0.0005600396102058775 0.9763817153526443 158 116 79
0.21195756365858215 -0.043235571822267116 1.0175100003303394 11 126 5
0.029907581004476 0.036544350290034486 0.9744177456404314 189 139 110
0.13406784602757 -0.08779017112714774 0.9726782693375284 162 121 83
-0.028161625940721625 -0.333751949973638 0.9261527133091209 58 35 33
0.1297205803640991 -0.07009874433531832 0.9716857506494795 132 98 71
0.0389142158947101 0.16168588688482802 1.0046997499049934 164 113 86
0.02585122688509103 -0.2147314723220598 0.9233635233193201 168 123 87
-0.07989152070768671 0.1634529878577492 1.0098016239950858 182 122 93
-0.009312537667834863 -0.29046055955429034 0.9378088955550635 59 36 29
0.04595546373146892 -0.08022842204621132 0.9639709246570658 124 88 65
0.05173265698948253 0.06571403211308126 0.9980968515756816 245 149 34
-0.0620022354849811 0.23020561170601408 1.0265089453928646 142 88 72
-0.035279473711675044 -0.01390106766931065 0.9527645287273695 158 116 76
0.1461264970741001 -0.07941172783505782 0.9824350235857807 162 118 80
-0.08251968503679079 0.33207165099580865 1.0314816927520294 16 10 13
0.07312779549393573 -0.1325422767794006 0.9358021754386149 141 101 72
0.0401435476121721 -0.10143119688804388 0.9475353298642248 146 106 74
-0.012397501740975756 -0.2573776639346462 0.9463106664779126 155 108 71
0.034776159756299156 -0.12345048729663337 0.9393125198585679 143 106 76
-0.017106309776313368 -0.33317806750504325 0.9269926881789476 71 44 37
0.036932379052642746 -0.11218024237902754 0.9449402103039329 149 110 77
0.09334986658418767 -0.1436297090784519 0.9609854198227188 96 98 46
0.03193045713443694 0.06664061697618345 0.9818232103350075 228 144 42
0.026817905389581224 -0.21086594021422841 0.922534410683119 170 125 87
-0.20517222299926158 -0.07230519354912969 1.0245797773509964 124 92 68
0.012138690551907748 -0.11284595321923348 0.9306329431541611 159 118 82
-0.06729365686538616 0.0009883727983110192 0.9687254805539789 164 120 80
0.03664904475536763 -0.14752578959062174 0.9383255792583062 145 103 70
-0.08042852999262634 0.08053196077602023 0.9936560825254475 238 150 42
-0.0681083757335653 0.34957422267926924 1.0362108894236601 7 69 6
0.0038328397950195725 -0.25646689638788095 0.9542319535253171 161 112 74
-0.10539113880966676 0.3584499395832674 1.033706027068498 0 128 0
-0.046747594434308606 0.06551263744642935 0.9800011828922172 214 136 45
0.02508770656663366 -0.2207971997099881 0.9235720840779368 167 124 83
-0.06658977002637999 0.08741128668782026 0.9916790408219508 234 148 45
0.08387334817535086 0.3500544356430646 1.0719262054867382 105 85 86
0.05727260074026298 -0.17322394413556846 0.929349740994993 154 114 78
-0.06867700946564749 -0.007499333201217668 0.9645173916601599 165 121 80
0.0155929189565177 -0.22116917848837495 0.9219158935398072 170 125 87
-0.010210869958679893 0.010587088055381326 0.9588911824853619 242 228 220
0.02331667645087858 0.2557282776733781 1.0247906953791441 142 90 72
0.0740772027249602 -0.16074153043144138 0.9332821998437679 171 129 89
-0.0852953952862892 0.12980956159441678 1.0031292896228265 236 148 41
0.06187398289262498 -0.0761011932695616 0.9947126706368703 124 85 59
-0.054499277448189484 -0.19326899532146105 0.9303904232110417 159 119 83
-0.04256362907903421 -0.0034188906313383227 0.9566312091503798 160 118 82
-0.043782947169014645 0.003365583171625283 0.9580012234560511 158 116 81
0.010903229031221484 -0.2876292478236457 0.970453078148743 197 132 91
0.02386604907375605 -0.01932386241634485 0.9530915633900583 148 111 79
0.12150129509060734 -0.06855555696679407 0.9694980922229427 138 101 70
0.0232894050886512 0.35954811973069645 1.0241949974133624 0 123 0
0.05242590001169105 -0.0691827577456971 0.9809301408893438 121 83 59
-0.020278290881337705 -0.2798741457353099 0.9418351008073608 66 39 29
-0.04314783952918807 -0.35401494887939866 0.9394836306799568 9 42 7
-0.049361378969610264 -0.28886269738492054 0.9588546144783462 165 93 65
0.06606775162313909 -0.17904973257029702 0.9328516670943784 157 116 79
0.02252129544125713 -0.07909285482850613 0.9385115935030726 153 113 77
0.03381616809048487 -0.243374021326437 0.9526596671491524 163 115 83
-0.10131864035646446 -0.17624211293038092 0.9460824211790609 117 79 57
0.0254657325445485 0.07817962013490554 0.9827789271462725 218 136 40
-0.06677129597652086 0.2430235301496012 1.0239424651128048 139 90 72
-0.03488522608450117 0.036321703255028474 0.9656787651703792 255 255 254
0.12361532738750529 -0.07973327071811512 0.9679271089137731 157 116 80
0.03718585343293295 -0.0805195379652301 0.9467783190263382 128 89 63
0.08674866623730625 -0.0913295505386765 0.9533200500965414 131 96 69
0.030030008314283926 -0.12131316586676645 0.9381045020308628 139 101 71
-0.14912494540239757 -0.11132558299523623 0.9755177666894891 127 89 62
0.022241318836995753 -0.13805431949057173 0.9296897049680614 142 100 68
0.13716079600161626 -0.08112581723931821 0.974638386694835 156 113 77
0.07977442454290677 -0.14648097250983774 0.9334846572678256 168 124 85
0.04668116364668762 -0.19204927759290444 0.928359749817559 152 112 77
-0.013055312949815576 -0.3137257895873065 0.9265278915482731 49 29 27
-0.04594068642030348 -0.19351469286485395 0.9311390552029982 143 103 71
0.03817565394148842 -0.21315418348605494 0.9261545095043031 169 124 84
0.013735434490065828 0.1863850020889928 1.0148128827758354 161 103 76
0.023525630796751486 -0.12543548922740608 0.9332249781214519 145 105 72
0.08808586472363153 -0.156122629052822 0.9449097537689136 162 121 83
-0.008824279794065758 0.07665569306924934 0.9928285802729062 175 100 28
0.0510159286766839 -0.13334371426285344 0.947045498210903 108 74 54
-0.22558405461586847 -0.05332665870228299 1.0553710162180365 126 96 70
-0.05648193704231035 -0.03635081371497835 0.9501716040688768 141 101 66
0.125370802179543 -0.06949315899879141 0.9700815704680031 139 103 74
-0.22606807018300995 -0.05275254828297092 1.0559105182779316 93 99 50
0.22379889974044748 -0.009116082597012477 1.0140098563711142 149 128 80
0.08755885273226018 -0.1033710482318855 0.9440895161074627 149 110 77
0.00783898546572582 -0.28996082998081935 0.9588841137148421 170 97 69
-0.14663861955234758 -0.13712823818687792 0.962952408501469 137 100 71
-0.019764371500581048 -0.30995632967754283 0.9293925526920253 34 19 19
-0.014379584488232528 -0.2975994984229229 0.9342980570642374 40 25 23
0.017399741767692736 -0.1240328804390567 0.9300265962552118 153 113 79
0.05386927161797282 -0.20460736675371272 0.93228785269453 143 102 72
0.05974491869488 -0.08147028122113383 0.996893945756732 112 73 55
0.04941943457098024 -0.020158350164685663 0.9809767431814932 147 110 78
0.20755257906246108 -0.035793814415241335 1.0100449466448869 174 105 80
0.04668144125393325 -0.06476863720624776 0.9625904320170621 113 78 55
0.015445578523413021 -0.11057153455129438 0.9304556281471834 158 117 80
0.04863858856284488 -0.07332851432223352 0.9735328801174089 121 83 61
0.07954067308199726 -0.09784837698767468 0.9507956940590427 137 100 71
-0.0012751651027009755 -0.27534239576772324 0.9987692994713794 10 127 5
-0.07156719804432701 -0.012298676571465765 0.9638403290489478 167 123 81
-0.008458273994048188 0.004196926306259119 0.9556580729853388 165 122 80
0.03443853428169227 0.10734967943905718 0.9908114745919369 227 138 35
0.1660693908667238 -0.029880509648831596 1.0052484844516767 124 79 62
0.02076427672125913 0.062457192014769757 0.9783124542611344 222 140 43
0.07227949045110112 -0.21266895425399443 0.9565996547456548 172 129 88
0.12878550905615818 -0.08879572865503244 0.9686506561309173 161 121 84
0.09921892226366004 -0.11782544784432783 0.9448784852375873 171 127 88
-0.0839233926972333 0.3580127867688901 1.0251870391120108 23 15 20
0.003010154316092314 -0.3204841790805383 0.9361839353029872 47 29 29
-0.10328045227973703 -0.14190071129974285 0.9712253539222369 80 52 37
0.04490995354869802 -0.06646190688146382 0.9581653401629375 115 81 59
0.022731096795758084 -0.24439623343020586 0.9475182443183063 149 109 79
-0.06452122485428502 0.11689357268406315 0.9960340527878845 229 146 46
0.018708441856215747 0.15389276503405216 1.0064175220299143 242 150 44
-0.013341656746436555 -0.21914468742341472 0.921636267000779 167 123 82
-0.11863984764041008 -0.19491608086479068 0.9498445439530766 153 113 79
0.18704812134965695 -0.05288970919175897 1.0130459171585149 185 106 78
0.10234612389357935 -0.13658352031103815 0.9642812612493691 167 122 82
-0.02108585872326891 -0.0058653715138116186 0.9526784561101298 159 118 80
-0.02196528532439976 0.010967883916308548 0.9590204599908234 228 213 205
0.05006645737792017 0.08180133871906071 0.997487019229497 233 138 36
-0.10119570635355735 0.03238775240370081 1.0176740159243878 254 251 249
-0.053816871370005445 -0.045407897940470655 0.9477453204759608 152 114 81
-0.013375552907894219 -0.31341953215445856 0.926754237917149 48 29 27
0.1033317339863603 -0.12597199140234475 0.9548957818602036 135 98 69
-0.0808566106111319 0.13465448157389517 1.0023356932438352 240 151 43
-0.05528576851018516 -0.2403220990366856 0.9385936024815852 164 120 82
0.06194149259279122 -0.1895146004430792 0.9333697667154001 162 116 80
0.05644985605465955 -0.021910856310112622 1.0042385265677627 130 96 70
-0.07853833285562552 -0.11873765913865798 0.9445172434980514 161 120 82
0.0004045027742489288 -0.3308398288192448 0.9316182287153536 62 38 33
0.0578078759677966 0.3183480636012047 1.0373877492814023 77 38 34
0.025857228988069886 -0.24405877004572124 0.9504584345440644 155 110 80
-0.04404629339085464 0.08916428462882854 0.9940240311624898 210 130 41
0.02445437841833157 0.08110696833436368 0.982702429929162 214 131 37
-0.12623669976914498 -0.13273016671782709 0.9649495607621942 114 83 61
0.12803962330830573 -0.08850228352113011 0.9676869444285776 161 121 85
-0.14259802571807093 -0.12125672317082765 0.9689219055005277 129 92 66
0.025545721444229914 -0.22129211977252294 0.925385286636527 165 122 83
0.049788505637430244 0.07732021991722203 0.9962404079602248 235 140 35
0.17732838666527345 -0.035451545024575454 1.0015069065792939 176 113 81
-0.06438518702077255 0.09744081589988254 0.9911472442381986 238 151 46
-0.05346324753850888 -0.15134381662807755 0.9318760584815333 148 110 77
0.06666580213086518 0.1110361764238909 1.0237886141827717 121 140 23
-0.00338344002952346 0.040065711127592454 0.9670178704434038 177 131 97
-0.07082953479229152 0.10275833882040922 0.9931395875425473 234 146 39
-0.23018678941467044 -0.05638668861110866 1.0556885609236208 183 122 94
-0.001821498462110463 -0.17878905080340024 0.9199795831798152 161 121 83
-0.05631785788974776 0.12194665819945835 0.9975000450768435 222 140 43
-0.02088935610604349 0.03877540890532621 0.9677175736172534 153 114 98
0.016066093233855903 -0.019526119260533995 0.9517584060488887 138 103 76
0.046115189245424036 0.30148891270590716 1.0328099788885814 149 108 83
-0.03779100541585901 0.07845326761532706 0.9918215070395302 202 123 35
0.05475058899193146 0.3192359710649304 1.0318282457997248 92 55 47
0.03714687384218763 0.051236735746423075 0.9829369042003988 233 147 40
-0.0013260934010593754 -0.01767142116501775 0.9509668052282392 133 98 70
0.03718522625742395 -0.06662800938734022 0.9500724580884691 141 103 73
-0.09898690052148504 -0.18540299902584043 0.9436933836710861 153 113 79
-0.08413314777850951 -0.06189318330025343 0.9566726796793563 156 117 80
0.030076195046724395 -0.1514722515160342 0.9303129505943849 150 112 79
-0.08407410176285648 0.06866115397839419 0.9950285649755094 240 151 44
0.05943010225170893 0.3226701900803793 1.036632793211083 31 24 27
-0.09389371101450286 -0.16500811100050158 0.947755420803395 140 102 72
0.05478421248401499 0.19801201985527825 1.0325485213126602 173 113 79
-0.08854579568109065 -0.015080088466426016 0.9813274767081646 166 124 84
0.06176227572276044 -0.029111142010262787 1.0197038119967266 137 101 72
0.11426117631894929 -0.07674926075884567 0.9663797594920943 142 104 72
0.12479618648302615 -0.10766600710861078 0.9781750711499934 112 112 56
-0.12349211741360881 -0.18972550337659896 0.9501278396096011 177 126 91
0.14384659025062208 -0.0392951423837284 0.997388772791364 113 91 61
-0.04924862428592251 -0.2593318331157142 0.9534324990097665 157 109 76
-0.030661883817664267 -0.007102099316640761 0.9527991408508225 164 121 82
-0.09281821064498647 0.14993914929792626 1.0108513130454313 190 128 45
-0.07518382934627134 0.07690565158683652 0.9926866201363123 240 151 42
0.06902589183251036 -0.1563257769335247 0.9324014790048164 163 123 86
-0.005163588162887112 -0.0035158188338536146 0.9540805995421878 166 120 77
-0.2595301390488716 -0.05100410881419429 1.0721254868405519 0 131 0
0.053989964680576256 0.003946300764876327 1.003164164158961 148 105 68
-0.07657235016041698 0.03719946396451481 0.9834291155222125 245 233 223
0.037141439122105 -0.08700703540440341 0.9456879330493475 127 88 61
0.03819423525822611 -0.120630615125094 0.9440391953925676 148 111 78
0.052730080201739186 -0.06550648305301901 0.98083012505865 132 90 61
-0.042675829467353495 -0.10750531705012732 0.9378160541327007 160 119 81
-0.014199220252906628 -0.2529230800515061 0.9434283830653941 151 105 73
-0.19782656249002956 -0.08541897901064101 1.008301625222951 174 131 89
0.05561300732619881 -0.2300208990760965 0.9557330953258653 174 128 89
-0.0648190518945024 0.1172755391602474 0.9964911459818772 225 141 41
0.13260404560630706 -0.08531989413003663 0.9716576911432998 160 119 82
-0.14219031197053525 -0.1271800784953868 0.9662530745827711 132 97 72
0.03109741206679629 0.03558102758539881 0.9756310450261317 218 186 161
0.009386970693245515 -0.25746907225200666 0.9621498467543549 154 107 75
-0.111039212030216 -0.1812457348101272 0.9467080122120307 151 112 77
-0.029555836007801328 -0.3309647928941095 0.925574277952436 56 34 31
0.055550874246860775 -0.07853172475038815 0.9872668801315262 106 70 51
0.04048330715086336 0.12858089865989664 0.9960032536310967 227 137 34
-0.026668711288709478 -0.22300335867102813 0.9261861993795818 164 121 82
-0.010943110817529399 -0.33993431270608365 0.932208341953094 67 41 34
-0.12739690833205242 -0.10704661968171648 0.9893196528375025 7 124 3
0.010939152774436602 -0.11891438818752864 0.9284274561734054 157 118 83
-0.09295703567382892 0.3387385954857805 1.0267687384611346 37 26 32
-0.07950997012027296 -0.04988941149850003 0.9556157738813768 156 115 79
-0.058618093506123355 -0.02084441075850422 0.9514554153987724 139 102 71
-0.06960868530976164 0.18864233097228986 1.0086891866265582 168 108 79
0.12436821767197107 -0.0692979934987893 0.969528182327819 141 105 74
0.02405235990152815 0.07973778749652873 0.9829371019047102 219 136 38
-0.06436348925099243 -0.062047374325022046 0.9496301646406974 141 103 72
0.002613130228856029 -0.19411177060133336 0.9185792562658788 159 118 80
-0.014007241195173664 -0.1131792014486459 0.9291200861542487 156 116 81
-0.06090276849138148 0.07521999941939511 0.9850200789152601 226 144 47
0.03234996894197735 -0.012430243218046947 0.9642444202068543 159 117 77
0.008564663792795423 0.06419014533195137 0.9779142249148604 213 135 44
0.08738906780251589 -0.1674622280657898 0.9520183589038207 166 124 85
-0.02928218931929763 -0.2494780344624662 0.9411046879301216 158 114 79
-0.06275434079562982 -0.06522996225429825 0.9485456181141262 145 107 72
-0.07897129772828937 0.14496937428234524 1.0047174080832115 246 159 47
0.03280103156955011 0.31170771548602 1.0312128826921207 77 50 37
-0.12369155292424404 -0.1404499487059941 0.9628281609521426 126 92 67
0.0639519976121643 -0.0861600963902253 0.9993060033459565 122 86 59
0.06429385720333029 -0.18379592225376112 0.9333737591064722 153 112 78
0.08737228290106067 -0.12675255359770046 0.9366579552781998 165 123 84
0.006069859887042903 -0.20510682795702667 0.9193532722416367 162 121 84
-0.04921180832938514 -0.04513503738819434 0.9437853835674148 164 121 83
-0.024774574029553038 -0.27200564593597176 0.9472809833843822 128 71 46
0.05381953247457264 -0.06016170974380532 0.9828971965409348 108 73 54
0.005338979772280526 -0.26889868678788015 0.9637489062783082 175 117 69
0.040236848900940994 -0.2095463479582749 0.9249162682784487 161 119 83
0.09098301133760578 0.34655430917332997 1.0764279204458407 115 90 94
-0.09442179344223949 0.002822629854770478 0.990348205950558 71 158 62
0.04598741514890097 -0.07651379145756913 0.9626759130365996 113 78 57
-0.018295037399748422 0.017459298936621112 0.9614407559215842 246 233 226
-0.0496656063928568 0.0030925041053668015 0.9598656149023967 167 122 82
0.018846103321119623 -0.24551729101945022 0.9505271667209397 149 109 79
0.09352869799603378 -0.07702004195264213 0.9658302615674214 115 81 60
0.08041183162186043 -0.17058493811483036 0.9420881273406064 170 125 85
0.010231698175444866 0.0036877678983221916 0.9578144216688916 166 123 84
0.017726783280108037 0.05158886839165129 0.9753637819585604 226 144 45
0.22862654045044964 -0.019632740968246215 1.0151250875514968 8 128 4
-0.12015086593255357 -0.1339159630831939 0.9681313327961496 113 79 54
0.06864368673159016 -0.20934198605543428 0.9474588355631968 170 125 86
0.0342605141317391 0.020874367354243136 0.9753697190060449 246 231 222
-0.009444755923039368 -0.028513093136827754 0.9465261117781674 130 91 64
0.04272988034415133 0.34100603337614027 1.0215132067775887 41 29 33
0.014142760338740118 -0.3554242474683064 0.9620620191790954 0 130 0
-0.0656668478659811 0.2299518715679281 1.026102799108718 141 94 72
-0.124626732666439 -0.18460696870180404 0.9508204517623294 166 122 82
0.05788276247579528 0.06110685084411187 1.0412027995883193 113 133 17
0.20172441254869275 -0.026563269919724918 1.0048599264345244 149 99 74
-0.18954250638507666 -0.09477814603589811 0.999299461184275 140 104 74
0.037213471010722636 -0.06385667367609871 0.9506703338951543 138 101 72
