ply
format ascii 1.0
element vertex 674
property float x
property float y
property float z
property uchar red
property uchar green
property uchar blue
end_header
0.03394387893791822 -0.19783436547398647 0.9054802427118022 156 124 79
-0.040825542087753464 -0.3016325231523582 0.9291436597749462 53 32 32
-0.0777649549304682 0.12480389044656448 0.9915150262299435 241 149 41
-0.07767316227921228 0.024526946410655892 0.9900942298858383 254 249 244
-0.1648121056709787 -0.09900738582843616 1.0010780330180533 169 123 85
-0.08209779529813832 0.068179116823182 0.9996215519197091 228 200 169
-0.056605206454022436 0.07466828484779066 0.9663998613329744 230 146 45
-0.04995508345917088 0.0032150526054787743 0.9415816986811529 153 130 108
0.07742719705706747 -0.12155658344289044 0.9141854325666192 152 111 78
-0.08178650558869371 0.17504831708728652 1.00434781200251 169 103 70
-0.06491682987497138 -0.03455186723170145 0.9408176916914609 150 112 78
-0.06737435687738325 0.14333431696224297 1.025962487125738 138 83 56
-0.040527508438480284 -0.30334292822979436 0.9289837741982689 53 32 30
-0.07004847446587026 0.054508745867585695 0.9750035174014552 239 150 42
-0.06722533858103774 0.074928035640351 1.0345813827760078 238 143 36
0.04239026078496498 0.25001578636475486 0.9969477941094609 158 104 75
0.011581331412740132 -0.08734773850366245 0.9109327022939674 157 117 80
-0.06737465368581574 -0.05562325447238314 0.938196118923992 163 121 81
0.08118159130964572 -0.12327340150284398 0.9130909250928834 79 124 41
-0.033289304082710025 -0.28733203043331423 0.9604382524201691 162 110 77
0.013028190229039805 -0.12506988396859373 0.9035226927705753 157 118 81
-0.07349146108216609 0.10197132301845357 1.0259579519511708 138 88 55
0.04001261261080353 0.1337372563454427 0.9708637419178064 2 127 0
-0.08307814176793227 0.07659971405685839 1.0066346597112736 254 229 189
-0.01561596087828922 -0.2691440445335541 0.9144435687854039 41 25 22
-0.07473914448063324 -0.05509522955378143 0.9561954956449314 137 97 68
-0.07969325712560937 -0.058672191331787804 0.9668561281588414 145 104 69
0.0150959020343715 -0.14701560856968632 0.902776294607754 160 119 81
-0.055658987667709374 0.01028787680501305 0.9521215460984234 255 247 238
-0.06048285151759569 -0.10370134826796917 0.9235592594587005 157 117 82
-0.061262962859049974 -0.22333003648486827 0.9487394021479565 162 116 83
-0.20958892058902867 -0.061654175640158404 1.03663446104233 202 112 91
-0.08025896894395823 -0.08018768973526447 0.9706011236005477 110 73 54
-0.07822310349134987 0.04359400933719626 0.9991455502375854 230 140 37
-0.0823551489855121 0.07186171290012133 0.9981512905332688 236 216 180
-0.07521801179857213 0.07246233448225858 0.9876384102438409 216 122 34
-0.009558408744487101 -0.10307621002786371 0.9106542020705 159 119 81
-0.09311023339575275 -0.19830360562138516 0.9514405485627746 166 123 83
-0.039119320034413735 -0.3065443885089684 0.9271419902491513 42 23 21
-0.0714234459643146 -0.011083685779905927 0.9612838897941696 163 118 77
0.01221646176431479 -0.12144544574081273 0.9038058992836759 144 106 72
-0.11881988995237891 -0.14641831098890723 0.9500989803982467 175 131 89
-0.05341366393958385 0.01629703106235803 0.950137614200872 255 249 241
0.02674942523860202 -0.17839428192577111 0.901975415062434 159 116 79
-0.03211656650641781 -0.1866138990162498 0.9098693107593825 159 118 81
0.021776801488607944 0.1423246123809816 0.9824682229536232 166 114 86
-0.07639396559217498 0.03918419389170688 1.0133372340453761 230 138 34
-0.14733671124641634 -0.08978545157000806 0.966231161096198 139 105 77
-0.21107486909952733 -0.04633703333214295 1.038756826445849 126 71 53
-0.07273509936060496 -0.10154475603687318 0.964568914362416 81 53 37
-0.031271156291038826 -0.24529507634003345 0.9508593693822587 185 116 74
-0.18317113361770798 -0.08324140828411175 1.0286364727804083 96 133 47
-0.08529698804142896 0.22245358429418938 1.0069032866819876 154 101 71
-0.07546852091369027 0.014532665024729718 0.9854211858332205 254 241 229
-0.030058330832881217 -0.30530844053131434 0.9608061485777301 85 53 41
-0.05860338606903102 0.018625599654329663 0.9542395611177793 255 248 241
-0.0744696701728147 0.04280388253818468 1.0190021644012341 238 144 32
-0.08197895510946784 0.3193560287833743 1.012815608832368 19 13 18
0.09297472987623467 -0.10964083374552036 0.9170593938130485 149 120 76
-0.011744614234483253 -0.17086853658073187 0.9067763242908389 158 117 81
-0.0725784430527503 0.08089871643343383 0.9803598402362093 249 159 45
-0.06759005574734656 -0.0945621292645048 0.9297197722392582 160 120 82
-0.06104870533958962 0.19225392043877054 0.9821813512779417 83 118 40
-0.17255914031218778 -0.07307319513195987 0.9942171234122457 169 128 90
0.07196891952034967 -0.14457961271086528 0.9108330208035507 121 126 62
-0.018556507365090846 -0.044905238234078215 0.9205299519228772 158 117 78
-0.07708825441328526 -0.03673995657731588 0.9621462460441886 154 113 78
-0.06622804022467876 -0.01985128227498828 0.9504217586280872 145 111 83
-0.08598061797448864 -0.17584450690845443 0.9269051449839925 144 106 76
0.010732397889148704 0.05954661767696012 0.9605339077172508 199 121 37
-0.09577662927409869 -0.19412755422539796 0.9565335959273342 169 127 90
-0.04660382894154851 0.02529961704439626 0.9445972283047345 255 252 247
0.010830168877522138 -0.05469604128394075 0.9178125427092864 157 116 80
-0.03748356252442653 -0.31229968811382713 0.9288034174597658 17 9 10
-0.08088194968758833 -0.06970732913227962 0.9701986910737392 128 89 62
-0.07581438470320068 0.00019260446712854318 1.002656363581352 204 187 169
-0.07747298600232067 0.022778140369158484 0.9898828567126987 253 241 230
-0.07663758456403458 0.009551092668067751 0.9979084839405747 240 223 211
-0.03993894021322131 -0.06926617216075326 0.9259353254104754 162 120 82
0.02260384486853595 0.18501061026303445 0.9897347739566956 146 97 70
-0.012654107938144143 -0.09623621295320905 0.912557383659402 159 120 84
-0.08309025717632726 0.24034729681863345 1.0089588193317016 151 98 67
-0.03089943569672804 -0.14684970314433898 0.9129860352854149 160 118 80
-0.07588952160443674 -0.024110934730703082 1.0103496795836377 144 103 71
-0.13795571380263427 -0.09330099731294128 0.961178442423631 140 99 69
-0.07774022754784804 0.03342215952941019 0.9916156003326146 183 101 29
-0.07846934106392323 -0.027648227942369208 1.0064075852651624 131 96 70
0.042137615726656884 0.29661084821005085 0.9955033733815045 14 10 12
-0.19336588918181796 -0.06768880944865319 1.0235148564082113 186 137 87
-0.06758245630787521 0.27954809133777236 1.004172529379815 0 129 0
-0.05422182160196551 0.0826057474861471 0.9667392014124325 236 150 48
-0.07828854257307083 0.12062943942873972 0.9985451925313304 221 130 30
-0.022322115060134706 -0.20852332063505785 0.9120595521958537 166 123 85
-0.144051810292938 -0.11712357797866169 0.9776403058791863 172 129 89
-0.0369781048565164 -0.27162239266437255 0.9301691430109348 69 44 37
-0.05858270046206404 0.05008448720980496 1.040769751239918 230 172 87
-0.10915634012181874 -0.16221869527147392 0.9464099460090993 178 133 90
-0.1124883216193755 -0.15775030488650366 0.9492997476770273 171 128 86
-0.060164142079326396 -0.0901145603422718 0.9259313822855805 162 119 78
-0.0858840752158163 0.19972931458014961 1.004731587781853 162 108 73
-0.08393131925198863 0.26861019471782055 1.017496252519174 168 114 83
-0.06434016096452266 -0.10250250324623905 0.9259631679380866 161 121 83
0.014171413401140365 -0.1835640757813004 0.9025874597555978 165 123 84
-0.08762117048458479 0.2785702761287395 1.0256815532618078 65 33 33
-0.07772489155223417 0.01670395284400139 0.9966515151895681 250 236 228
-0.02018194407588049 -0.3292172716267636 0.9296705714207746 3 93 3
-0.07738430805645302 0.10633182667125007 0.9944875221438437 210 118 27
-0.061841289049433534 -0.02212362266028195 0.9441621323490392 148 111 77
-0.08280291025743647 0.08439502521695097 1.000132584761181 255 243 196
-0.06746924597521753 0.07164488098060406 0.9731214970815686 236 149 42
-0.017890726652466053 0.059295060685740864 0.9616204832073861 191 110 30
-0.10696178409259982 0.30083203171165573 1.0551541492857468 57 40 46
-0.05650978698322179 0.015523141732508084 0.9526400967415186 255 248 242
-0.04528643476799865 -0.010112096628771633 0.9373668364883316 163 118 77
-0.10178841449333564 0.29740243523025045 1.0488793145591742 57 42 48
-0.0626242236129706 0.07948033183818559 1.0398219119310055 248 153 41
0.10300004794971862 -0.08230613509259577 0.926818948175419 43 124 23
-0.05510428278591495 -0.18309234958283502 0.9145119400225978 148 108 76
-0.07405127249210053 0.009950030057344628 0.9793584752778247 251 237 228
-0.19824515187064273 -0.07491736095559443 1.0394718451146763 191 111 82
-0.058891587950917874 0.05412640919186576 0.9639769377738474 224 139 41
-0.07569812341435234 0.04154298230728326 0.986042899436562 244 151 40
-0.11455314296633823 0.31299569683278383 1.0720968677963216 129 110 104
-0.060275046613940196 0.1773923953123421 0.9820309598060324 181 114 83
-0.19108740107158706 -0.0687247914106861 1.0210118292882184 186 139 93
-0.13760452173374904 -0.09648132287052036 0.9607847164482398 149 110 78
-0.06214136133358461 -0.03010737798223545 1.032699655308236 178 125 87
-0.0038841306001086255 -0.28308524559647147 0.9071444758107956 61 38 35
-0.06890663846646539 -0.09313235026419053 0.9313004950262915 157 114 77
-0.0846219028418348 -0.07593832889188556 0.9887626485100248 109 75 54
-0.07943477754516048 -0.06917726213612041 0.9670896150699972 133 93 63
-0.07917577684110044 -0.03926705270336628 0.9665738831074321 144 104 70
-0.020390769029724032 -0.21048660824591314 0.9124999006858522 167 123 84
-0.07489168278784086 -0.0986561067730447 0.967951434397521 76 46 30
-0.07561282314212292 -0.01698783514779656 1.0117687121822065 151 109 73
-0.2240007087854875 -0.03440204409115821 1.0567220179596397 158 96 75
-0.0829598821648232 0.0842375466472931 1.0020278214900975 250 235 201
-0.08141495250341713 -0.026189757172636052 0.9893055604909186 137 101 74
-0.08427209194848695 0.2398750714804998 1.0144122224505625 148 92 68
-0.11330080186772973 0.3152557188410725 1.0648578783844154 149 119 114
-0.06554365812809015 -0.03978855802474013 0.9396860126060889 160 123 87
-0.06044192756217037 -0.14298873500804915 0.9208507899128897 98 62 42
-0.00027452263024429124 -0.05203564022255002 0.9182183602635543 153 111 74
-0.12445625947873629 -0.13925842580642867 0.9559816517693142 176 130 88
0.015530455244008978 0.14195178258907326 0.9949373096459964 137 87 64
-0.07802032219442731 0.1144099373900537 1.0137075613300897 185 109 33
0.04478157952230501 0.30411471494889875 0.9932571265053819 17 10 13
-0.07058362393500395 -0.042726141775102366 0.9447351800754442 155 115 79
0.036533009648387786 0.2328076146080255 1.014001149798752 141 108 74
-0.07817086116140226 0.11263112891599159 1.0112968812113905 214 132 41
-0.0245291523229918 -0.15525274979095105 0.9102353456660887 158 117 81
-0.061042215138454634 0.20171094607745058 0.9837615193621283 109 111 52
0.03752421461279765 -0.1844930337772405 0.9028349034046594 92 125 45
-0.03907319801628008 -0.3111906293767894 0.9398623931925074 16 10 11
-0.06780987547964082 0.28518816796736957 1.0009503542221965 0 133 0
-0.16429485540688948 -0.09235773145045867 0.987863431749431 175 129 87
-0.1541178734307329 -0.10141637835126005 0.9770326686755793 169 123 82
0.007386433006691062 -0.1652490640861628 0.9030338646602927 159 118 80
-0.07530886738235831 0.013797217998677835 1.0133937846112722 247 231 220
-0.09718603294144734 -0.18908422251966028 0.9473743716530807 170 125 88
-0.08223178712520385 0.1900245536155989 0.9947068741741197 166 105 72
-0.07886478147676723 -0.004106229022365515 0.9865081955447101 156 113 75
-0.07501346022710541 0.26665875820423607 1.006911956677584 167 121 85
-0.07353377081707635 0.09155335960130628 0.981754957022221 247 159 47
-0.0743758725560747 0.10589174666183432 0.9838288530284872 251 162 46
0.0013474273446031316 -0.044650377712145736 0.9199779170914785 155 114 78
0.03711605780302745 0.2732840590969375 1.014193438024261 161 103 82
-0.22653464342038276 -0.04401161596561298 1.0548474364912215 148 83 61
-0.06669820027620355 0.18833169790851467 0.9831634921774194 171 111 75
-0.07804801884682955 0.1283900435422085 0.9920034306728465 242 150 41
-0.01675316018963053 -0.26127271352290854 0.9191623210472921 41 23 21
-0.1411541788631866 -0.10563070607019132 0.9665148825677982 141 99 67
-0.0788945368150109 0.2535065777836944 1.007018115528473 141 87 62
-0.20468445077455322 -0.04665620627242706 1.0354000504568202 183 112 89
-0.004606515908842897 -0.29138575454637633 0.9055037816575267 70 37 37
0.022720471407969622 0.18693968564573393 0.9944148134661923 149 99 75
-0.09467471800226468 0.2984633186600143 1.0340268463274451 44 28 41
-0.03559440141684987 -0.2868301099424159 0.9205137160634199 53 32 29
-0.0782328863357803 0.023236121271440258 1.003557528605568 254 248 243
-0.07263767427366274 0.23133082076331257 0.9958909706687932 154 102 70
-0.06408824462617091 0.07543835857958126 1.0383486417766283 252 153 40
-0.07878539348590734 0.2194347168170284 0.9952296185241373 156 102 69
-0.07513302636327213 0.03320447287876038 0.9789377337782275 191 133 88
-0.0631654596718032 -0.1993234814219509 0.921596995815989 156 109 75
-0.0918821356312971 -0.1925812147846777 0.9380703642946939 169 124 88
-6.460335483737811e-05 -0.10232801682520565 0.9083497276058702 155 115 81
-0.07737079784185152 -0.026591965556716946 0.9656959253430488 147 111 79
-0.10746888163916775 0.29878623756531664 1.0586606270093788 65 49 56
-0.07916188636993252 0.2671475509105597 1.0358902711156643 12 0 11
-0.07123306538112965 0.1848136532220475 0.9846441801888124 174 110 75
-0.05536506977345181 0.017640601660820144 0.9515120365543085 255 250 242
-0.07657327314487927 0.009374442072571987 0.9999071144186804 249 233 220
-0.08015101280115489 -0.15295376118060178 0.9296127777151759 123 86 61
-0.03204632418786346 -0.25519271209112393 0.9567077416993417 189 126 81
-0.012788616921431739 -0.13179521399726557 0.9087710352993158 159 117 79
-0.11361091093062625 -0.14286678520862228 0.9385176942558449 114 76 53
-0.08032021920697936 0.2529078579955265 1.008306981810136 149 99 68
-0.11280679253868309 -0.16082910562056307 0.9578657123753622 175 131 89
-0.11798045579861638 -0.14589677215898655 0.9469208992725344 177 130 89
-0.07650221965874116 -0.027918188240458552 1.0113736445802852 126 86 60
-0.0659663417422434 0.22068045104292103 0.9909048552320243 134 103 62
-0.03423466661136221 -0.13837664234111835 0.9149851567189573 151 110 76
0.037008438781733544 0.0611305020239013 0.9581318673818067 119 137 24
-0.079047939213306 0.09032740087475677 1.0089766800118287 226 138 35
-0.08287900402107362 -0.036090200692503016 0.9809739157651485 139 99 68
-0.19338746141648278 -0.06281519146969905 1.022608738142545 186 139 91
-0.08032021920719734 0.2529078579956108 1.0083069818100865 151 103 70
-0.03246634817606009 -0.2738862773945805 0.9221010442432178 53 32 28
-0.022295796959870384 -0.2201765928734953 0.9178812809218952 167 123 86
-0.08031956349861691 -0.212708809712701 0.9531269328775964 174 125 84
0.01313341085683739 0.1179102167355881 0.9814800504206758 203 115 32
0.027340148319600965 0.015521941453429278 0.9410150604996312 125 182 113
-0.12654154831896713 -0.11076721699087644 0.9508403473715097 140 102 70
-0.06263466857723754 -0.013854884839092724 0.9490743138376321 165 122 81
-0.07054289714290518 -0.139472773337604 0.930395503966539 130 90 61
-0.024819239893258294 -0.0975638700464283 0.9175101546583889 157 114 78
-0.03781003672198202 -0.22173162643441002 0.9228201692212037 170 125 86
0.05442725466270559 -0.1595329554024682 0.9086314706832164 143 115 74
-0.11179522785368934 -0.16221286573961313 0.9562559410763152 178 132 90
-0.07149406848291551 -0.09053524029289473 0.9363245414492436 145 104 72
-0.00962270594452277 -0.04392528778984155 0.9200543464150239 146 108 76
-0.0819675254783585 -0.07901412042658507 0.9738818072450419 117 79 56
-0.20828593960981068 -0.038186740487672545 1.0403551991485522 171 99 84
-0.06719906084316363 -0.21334894417294414 0.9344176425342436 179 134 91
-0.08464434689565903 -0.05921790322101006 0.9956767064818735 126 92 67
0.026036866895475196 0.1258251457192171 0.972897145985807 227 139 38
0.013119156855869729 -0.1597084932462094 0.9020416502526296 161 120 83
0.01895458694596619 0.14337938452287746 0.9858145043146563 165 116 91
-0.06489000871103322 0.024158396001133266 0.9603277742618875 255 247 241
-0.07354770534727574 0.12640120809321295 0.983718056476474 239 149 40
-0.07927488963124484 0.22865725183274885 0.9985865784294429 158 104 69
-0.07781946640141446 0.1654146782295447 0.9964596364205798 185 119 84
-0.03785399173101611 -0.2082015762501923 0.9154854568024233 163 120 83
-0.11734556976374759 0.3062184742750741 1.0818786248528056 201 180 162
-0.049877900942986164 -0.20263896493419864 0.9171844042480032 158 118 83
-0.0730166159935299 -0.08726257959850495 0.9495526763928391 126 90 63
-0.015058339976352598 -0.2246695047143267 0.9200595470749948 155 111 78
0.021585636487385058 0.15031143882996167 0.9836931073970155 161 103 73
-0.07880411741784765 -0.009199794463261829 1.0015257503834547 148 107 72
0.032343881034221394 0.15777740126840673 0.978298668156199 183 122 94
-0.2258094700864124 -0.057902833612606674 1.0543215581656582 9 127 5
-0.07617538156273629 -0.05391071234663647 0.959612535894533 139 99 69
-0.10788575330628936 -0.16362421892571533 0.9449185956161561 174 132 91
-0.029682201288288416 0.092120324365981 0.9704062441204204 194 115 34
-0.08141588805362099 0.2524516156807957 1.00976421950345 155 106 72
0.024050708824497516 0.13711103971858093 0.9782269864002403 207 125 44
-0.19498799691198643 -0.07571479727207997 1.0357943471364814 194 145 103
0.028459211212695592 0.20554297140418298 0.9866796896608919 141 98 69
-0.06954464151150186 -0.06621751832264056 0.9374236868644656 155 114 79
-0.018218983656840507 -0.2463692876978329 0.9767991388771734 176 107 70
-0.08356821976006468 -0.05444418126402639 1.0010351794994126 131 95 68
-0.029467824403346166 -0.16750627538568463 0.9101868813337575 159 118 81
-0.028174577172040527 -0.06059027468335443 0.9221986864524891 158 117 79
0.027010324079034538 0.16633131560347889 0.9798024073590774 171 114 79
-0.11387002285936254 -0.15008473413861934 0.9426305835335207 178 131 95
-0.038731067116485995 -0.06021683251987686 0.9259492719514089 167 123 84
-0.07047207380709286 0.06521955745866803 0.9766409394603001 240 149 39
-0.014404434905100445 -0.27236035174980044 0.9124669104881211 35 21 21
-0.0034278634396535893 -0.2814870939023563 0.907585360401206 42 37 22
-0.07492307864962311 0.14949055528688016 0.9990417048335252 180 118 85
-0.07866118830523185 0.2670026917971139 1.0094245762213103 162 122 88
-0.07284344127577846 -0.01337528282348216 0.9641545931372564 164 119 79
-0.08205467582606141 -0.05433267537859998 0.972329752171339 139 100 70
-0.08083488956148277 -0.0729191857908964 1.009071305363351 133 97 70
-0.0798301905192429 -0.03262108530101815 0.969361245410782 145 107 74
-0.02796575406737445 -0.08905750311839267 0.9196219181705179 154 113 77
-0.04324085882118631 0.045222312819603046 0.9551354885662974 221 139 42
-0.1620788739474781 -0.08645951772163163 0.981018415251633 175 133 91
-0.06939960425068636 -0.06450487095920554 0.9377707878668715 154 113 79
0.012040500951906563 0.11752841283606186 0.9831055471102529 200 113 29
-0.09594739996581225 -0.18671593168496203 0.9710401625098704 173 129 92
-0.03597267561338572 -0.0065690083897721255 0.9337955858719458 165 122 83
-0.07749861649183752 -0.0720533309470819 0.9636140644933313 117 81 58
-0.025688153544758837 -0.2551760100176443 0.9281160109657081 78 48 38
0.00044818968176103157 -0.2737802480514589 0.9103718328081675 17 73 9
-0.05392798281175337 0.12140616167663465 1.049674409777307 255 246 246
-0.00752781203168662 -0.1457918592406613 0.9065382396494428 163 121 80
-0.02505133803580668 -0.32781547624435725 0.9493141216721742 3 95 3
-0.07680467011963077 0.18391745611620003 1.0224181457211776 164 124 85
-0.038141505712308676 -0.0332713683689384 0.926682061308652 144 107 77
-0.040401313721199976 -0.29270697103124377 0.9270159861870366 55 33 29
0.011077778178945064 0.13082248609513014 0.9912943860483838 189 101 29
-0.06082833479348054 0.17909087068429486 0.9820827967794927 123 119 58
-0.09682526278145298 -0.19139174360057032 0.9508782761587757 166 124 89
-0.06710379629480609 0.2893588888032631 0.9999142102235485 1 123 0
-0.1995338160317086 -0.06259764149046332 1.0280776330847803 139 82 64
-0.06203883479801364 0.15035116246285307 0.9847741873558382 167 118 87
-0.062430524305162494 -0.10056209155035975 0.9251762715882457 160 121 81
-0.04011382776043286 -0.28455899735992735 0.9285266631072063 68 43 35
0.03940852039288145 0.18532719842931533 1.0162282086159022 86 120 43
0.03035773739538339 0.2181992479306074 1.0047250664354967 145 100 74
-0.07702742280512587 0.03726973324335381 0.9906342522067783 235 142 36
-0.1119652732818972 -0.1477537727600482 0.9384300215752126 124 87 59
-0.046227044827527264 0.016186304591824796 0.9452087751615728 255 247 239
-0.0317665713698861 0.0192011502914895 0.9396080251484086 255 247 241
-0.076671534200907 -0.04705833656428671 0.9605646487090356 134 95 65
-0.078013543355407 0.16337961520184452 1.0000334885701108 183 121 88
-0.20295632182100753 -0.06338348334126098 1.0313061734442799 196 117 87
-0.06986317156960098 -0.06963863252003422 0.9367182478372711 157 115 78
-0.06824053707768085 0.06233200241121617 0.9731814516620925 238 150 41
-0.07123452446722767 -0.032852036479839586 0.9499538091165136 151 112 80
-0.08673902236037123 -0.1395340693222633 0.9402117960072379 127 88 59
-0.14965101828034744 -0.11118031956810714 0.9794487383506509 170 125 87
0.03539193248795452 0.2261043865491022 1.0124416948989925 106 113 56
-0.0536325305966987 0.11382658047672756 1.0484592654251912 247 235 229
-0.08054273891487729 -0.07311610570097926 0.9697631749060701 127 89 63
-0.07503961845838147 -0.03766823056752988 0.9571072984008239 150 111 78
-0.07387890454250345 0.14037638441362477 1.0019722026157698 179 119 86
-0.17129124651805117 -0.08063030615664113 0.9916741689370128 171 126 89
-0.07285229426042394 0.08445823201172287 0.9808459873250567 244 152 40
-0.20819475308530477 -0.04729111577592507 1.0367258623948366 153 96 73
-0.07579840688981498 -0.0146738699728092 0.9723502120412864 161 115 75
0.022010627063850957 0.17264343325577844 0.9874917446068711 153 100 71
-0.15705853669136183 -0.10698821603356068 1.0039943579373207 136 135 70
0.008567495291220063 -0.10545038851043023 0.9070065121567593 154 114 79
-0.15104477525181825 -0.11322232863813575 0.9931280639467237 176 128 88
0.010361097191577184 0.10347894646158051 0.978018722410116 210 122 34
-0.04729425248450132 0.05150311410381454 0.9584834719253734 229 146 47
-0.07229895308350728 -0.13497066194931892 0.9341713363126573 131 93 65
0.0073349154598532085 -0.19270538951893634 0.9045353111486845 164 122 85
-0.07755965146373771 0.2540660345498679 1.005678807076801 151 104 71
-0.039874585707944964 -0.2993883211134329 0.926111313045493 54 31 27
-0.03150678751182187 -0.0002969386837141277 0.932616643260983 164 121 82
-0.07590860181179737 -0.09131012588022047 0.9648785895243328 91 60 41
-0.07538501181214796 0.3223830861447281 1.0060120307807363 26 16 19
-0.07837444768760815 0.07694811067205176 1.0190893478438405 223 130 30
-0.2037454465208517 -0.07374412063281022 1.0511170620786063 172 77 64
-0.06688447961152422 0.05913145228879779 0.9712571553949064 236 149 42
0.024447452087810614 0.15935469227792812 0.9819833607816661 165 108 79
-0.07761793089565883 0.04954566601117172 0.9944876488843588 246 151 39
-0.0778961029598968 0.11523678607365273 0.9977918697649975 210 121 27
-0.07409012393612135 0.0026890007072932764 0.9800548284170663 233 218 207
-0.029043306978016714 -0.20833235017539442 0.9132705056413097 167 124 86
0.03457861171387444 0.19338735856051592 0.9783886651292466 166 114 79
-0.20973976270004235 -0.04759320784254295 1.0375184688858763 159 99 78
-0.07632762125008818 0.07571143434669647 0.9896800284691715 159 80 16
-0.03498381283712204 -0.17784833912741904 0.9101749751938583 163 121 83
-0.03808223390925611 -0.3036899212334387 0.9513717132401865 70 44 38
-0.014525117961965671 -0.32342218765619696 0.9155700371258684 1 118 1
-0.04848148236420957 -0.15033292827432077 0.9131452588543671 155 113 75
-0.07738919167878455 -0.06496209221498295 0.9629559526618452 132 92 63
-0.12609507172787415 -0.1338447277985515 0.9524713070272732 183 135 91
-0.08098471254844264 0.06091802645334843 1.0028728791835617 223 192 161
-0.009248333110418372 -0.31382458064242336 0.907715458351716 19 19 11
-0.01428131540314137 -0.1744330675591934 0.9071822855009305 158 117 80
-0.0656392192150943 0.005969599302769191 0.9608461732615772 250 236 229
0.023339099162345223 0.18705918545846978 0.996845331654789 153 104 75
-0.12379897775251214 -0.13099069904846194 0.9449435948097065 174 128 90
-0.006818869415918206 0.015814495817657342 0.9406331713451157 247 232 222
-0.07050944794327307 -0.10093501503232982 0.9368915805031891 138 100 71
-0.02491324321637048 -0.32804936672276624 0.9355830095442423 4 94 3
-0.07711371827008262 -0.014945125065676496 1.0073514510499377 148 107 72
0.09457220512008524 -0.07166421325726535 0.9342470877606137 129 104 70
-0.14950551856222305 -0.11406085288217716 0.9882386643494979 166 121 84
0.023086536956105963 0.19113908033107552 0.9952451078197389 153 99 73
-0.011299746797893473 -0.2520977590735703 0.9229199411368119 65 37 30
-0.07458728474051601 -0.04482964125821187 1.019424154823567 160 119 81
-0.06470723837020298 -0.11369361245635501 0.9429514476154504 90 58 38
0.07827382833525065 -0.11965721112783712 0.9147686154453807 144 104 72
-0.079543498636505 -0.07992392659250624 0.9690435685887494 115 77 53
-0.08733708130709861 0.293905484293711 1.0203089207768934 57 43 49
-0.11780638516536301 0.30951387435944966 1.0738921748922134 162 138 121
-0.08690309640803484 -0.20390050212932698 0.9440105563313692 177 133 92
-0.03382132058746702 -0.315235254963533 0.9241484096336646 13 7 10
-0.07249466139943217 0.13673326331675062 1.0100774379552064 167 108 74
-0.07812728240942635 0.24239095114258147 1.0034405170365517 154 107 73
-0.009716539492090604 -0.036680187682904354 0.9211741816875602 144 105 72
-0.07364020054141807 0.14253374063956858 0.9964155921505549 174 113 81
-0.10680326289588571 0.3178665736449573 1.0479917191689108 17 10 25
-0.015431877878811609 -0.30395470732753954 0.9068479369389342 57 35 32
0.05039298863363966 0.27634704276721656 1.0403972120808267 0 126 0
-0.036136010354957726 -0.06162989043923295 0.9247933961197914 163 121 82
-0.005488532359998022 -0.14032372140954408 0.906213401166521 161 117 78
0.04673095917442267 0.30530288744095424 1.0414068834974428 12 8 14
0.0503425121647659 0.2572746308790006 0.9966807338438787 80 118 41
0.013437593362968014 0.10442678916335613 0.975163990194796 217 129 32
-0.07588875018688779 0.00033225971644268437 0.9827572965020959 199 184 167
-0.07140936068882009 0.01297411768158463 0.9712450426935265 248 230 213
-0.08312351842056985 0.24603844805324923 1.0119446977032467 151 95 69
-0.07945134599583184 0.17563716692494408 1.0136079098501443 186 123 91
-0.07829929104099342 0.0939197957164648 1.0140146616798735 198 171 148
0.046083331884727075 0.29199026238639697 1.0457953965060867 17 10 12
-0.1021207815578904 -0.17314979638158912 0.9422648963511342 170 127 88
-0.017784834506588743 -0.29673581703795676 0.9070883385445384 60 36 31
-0.07640261116554226 -0.022172481794987403 1.0084244576079149 146 106 70
-0.1285601810215402 -0.10938973316011458 0.9519423576829631 157 118 81
0.007092100399283874 0.06243786575160981 0.9637519632995117 188 105 28
-0.045361883750615006 0.012708050366048107 0.9449838564193722 255 247 239
-0.06662312041553708 0.0009407094860747756 0.955683665946737 166 123 84
0.01377251914820854 0.08322815517571303 0.9676368471880525 215 131 35
-0.06936312126153212 0.17232353350139568 0.9853371012713036 178 112 79
-0.07738858881948563 0.02474039428168262 0.9882829444468051 255 248 242
-0.03930190124980169 -0.27390121610163704 0.9501103058025722 180 118 79
-0.009832635229951592 -0.08349335578220707 0.9136734580993164 159 119 82
-0.060926761866018836 0.1941850719017982 0.9825543355427866 76 119 36
-0.08618558223457118 -0.20709151938660453 0.9608034559702359 168 124 86
-0.06566691203958366 0.06311125093144203 0.9704850450208509 239 149 42
-0.07870658217935189 0.02836071039696808 1.0062422230583126 247 237 229
-0.07367983256550004 0.05188475655166913 1.0230663419121182 224 134 34
-0.07656105885157949 0.053776584637271974 0.9897487676032062 243 151 39
0.0011372977137724671 -0.14005414663641735 0.9047659804245602 160 118 78
-0.1761421702767092 -0.07562916943138887 0.9990407537032839 164 121 83
-0.02370200824419022 -0.2674277691769277 0.9191490191654277 54 33 30
0.0036568261366567434 -0.2470738089059492 0.9259027018400263 36 115 16
-0.08086488300430439 0.23557179745372858 1.0030849049150956 165 110 76
0.03499628016030114 0.29580590170332427 1.008150403123048 36 24 30
0.04168351352088637 0.11997517546925522 0.9692825973231575 228 151 37
-0.04912797299875373 0.06561403139155189 0.962053536228206 226 142 43
0.04201431501629864 0.28595503582806747 1.0294492103118582 45 31 37
-0.07602318510773887 0.15452022594065173 1.005453929740626 177 116 82
0.006405015812959705 -0.08040664586805761 0.9121664541190888 157 117 78
-0.03686897800301844 -0.3089638904707064 0.9510202404841426 30 15 18
-0.08084919285121228 0.08158360894932049 0.994579633779046 217 182 135
0.05435441447079927 0.26276927029437797 1.0306261289204255 0 129 0
-0.07170332014286751 -0.015453495537676804 1.0201210178454196 150 109 74
-0.07664960902099593 0.046436165425773446 0.990419229493723 241 148 38
-0.039533504135007114 -0.27474942971761873 0.9381719712083432 148 83 61
-0.03157288643436962 -0.2498005040890523 0.9558783399807373 203 134 89
-0.06037973121685829 -0.0061953736862556796 0.9474197241315413 170 128 87
-0.08629514229089108 -0.2069717339016668 0.9512878911426577 166 122 83
-0.0819028489170075 -0.03363780102752345 0.9760058735703864 136 98 70
-0.19321136375741166 -0.04917518012336658 1.0291176191352924 11 125 6
-0.03238152489721602 -0.09136165992955769 0.9214204092521889 162 120 80
-0.14669087339684217 -0.10996048691399096 0.9720460943335982 172 128 90
-0.03749170642805333 -0.05288821040176561 0.9256876059140287 161 120 83
-0.0646694145111335 -0.06190110067900878 0.9344615662010985 162 122 85
0.021174041036076157 -0.20493085420046914 0.9076924926495478 167 123 87
0.018869663822283247 -0.20678370055751794 0.9085322747031422 166 122 85
-0.08834225697936748 0.3185338104792397 1.0240982819768343 34 23 29
-0.1359616664511526 -0.10259763494962515 0.958677978374343 161 120 81
-0.018171343186207833 -0.26437342115710033 0.9180666596032326 44 26 25
0.013002338843988541 -0.11425896311982689 0.9052143440353565 156 117 80
-0.07499549357892107 0.027894275065736152 0.9780862383765051 252 243 237
-0.06494409838743898 -0.12241782044554106 0.93185358920074 97 60 41
-0.07721012042958142 -0.03747146382619082 1.0153498325064354 138 101 72
-0.12025270519589504 -0.14806404094520298 0.9601789585738456 178 134 94
-0.07479582646419314 -0.02900339016731268 0.9586902963206255 153 115 81
-0.08378893269372001 -0.07692165595778211 0.9968856822240051 127 92 66
-0.034867205435528265 -0.018569911295849416 0.9283764479840367 146 108 74
-0.08259049449888656 0.07361372838261904 0.9983467879123301 123 106 93
-0.06068283612193958 0.19616100907981976 0.9829856696955269 147 106 66
-0.0763698935535646 -0.002474091768007669 0.9741938357542812 158 118 81
-0.04156614774454681 -0.057067000843350923 0.9272865875921696 161 120 84
-0.07880730740218345 -0.05129871020032528 0.9646669215830747 145 103 69
-0.11315583697448739 -0.15829540630475103 0.9525789700504748 167 123 84
-0.04502212445881937 -0.02737788628923199 0.9307726764963515 150 110 76
-0.009379540034758937 -0.16726860336996285 0.9063012623934562 158 117 79
-0.06908064166843297 -0.003236830949809949 0.9578076568771321 167 123 81
-0.014599133560940114 -0.30582239961393254 0.9068760565142691 49 27 24
-0.05232522066381288 0.052130709629845944 0.9604693530041353 232 149 48
-0.06640114096702032 0.0845358657611257 1.034645191482237 248 153 43
0.013908813169933198 0.09484609201556049 0.971679490988092 216 132 35
-0.08023305527795233 -0.0479898864906918 1.0098829773602018 136 99 71
-0.0756246919512994 -0.009208465374164226 0.9714174488630621 166 119 76
-0.06846758163733413 -0.027008472766571145 0.9482706998121545 145 107 74
-0.08342312641755163 0.19328648934678433 0.9967299394938025 163 100 72
0.03319720518448425 0.2134067199534765 0.9854074960850573 141 97 68
-0.027112749943574044 -0.30157843389844186 0.9120496987042436 57 34 29
-0.060275046613368286 0.17739239531237624 0.9820309598060112 83 123 38
0.029624561943741856 0.19169837435896575 0.9805768658531266 165 112 76
-0.18310962720123825 -0.06981245190797103 1.0108231763914572 160 118 82
0.036237783485341214 0.24339032873750865 1.0045428622813852 145 98 72
-0.047294252483967986 0.05150311410383628 0.9584834719253433 223 143 47
-0.08381717275196972 0.24386556207968718 1.0153096633075298 149 95 69
-0.08607214184202738 0.20521998988829288 1.0096139501096535 154 98 70
-0.07315670510446481 -0.0819086112884615 0.9484880669624953 122 86 60
-0.021335199753173106 -0.08114664429573848 0.9175855921872742 151 111 76
-0.08053457481853699 -0.039798477796707865 0.9697372239647228 147 107 74
-0.08019846281432247 0.22451752655428403 0.9974783761537047 155 103 69
-0.07184852469303393 -0.08715472232613952 0.9367416257068641 143 106 75
-0.07668691938543037 0.015768014213225268 1.0090199921872376 253 241 231
-0.17449318798454705 -0.09043953582346442 1.015674057383326 133 102 66
-0.08221826495756135 0.23312829365660814 1.004079496392198 160 109 76
-0.04474180655062909 -0.036167493535969486 0.9294495672494651 156 117 81
-0.07398100966664123 0.0968940358128263 0.9824682713498175 245 156 42
-0.07380450990768982 0.028411274184875605 0.9747802766705747 253 247 243
-0.07384866478023566 -0.050923558249492684 0.951529938652744 124 85 60
-0.11372868059385954 -0.15975636970174767 0.9613264914154604 176 131 90
-0.05994192603548665 -0.011428682936700782 0.9467301972575598 166 123 82
-0.024994738377125403 -0.0958073967788664 0.9177267642166687 152 109 72
-0.05225060098815226 -0.19536097196069147 0.9155289331060065 159 117 78
-0.036072312849551924 -0.0811680820872791 0.9235764056507512 161 119 81
-0.05870623934180008 -0.17176264043692235 0.9186719344812052 124 84 58
-0.002675558136095482 -0.3074428787207844 0.9055805862852566 0 129 0
-0.08346276196973633 0.21756621248035773 1.0008642092952484 160 109 75
-0.15501698630526572 -0.07619310306694826 0.9811904064675492 124 89 64
-0.07339141172990404 -0.129113936391255 0.9403628967176136 123 86 63
-0.07647542533596852 0.24117053005020983 1.0019397714040954 153 104 72
0.03788409920354527 0.16357648054456086 0.9770036270864411 179 117 82
0.006689997095661537 -0.16342511995905307 0.9030708022185505 159 119 82
-0.07764741106674622 0.19682603329395132 1.0263351770148854 6 128 3
-0.07413103634351537 0.06276665097076783 1.0247914484000145 251 159 42
-0.07410193934021692 0.12066577093461817 0.9844842612641086 245 154 42
-0.07659469535134489 0.08107870920822036 0.9904852848759395 156 77 20
0.02605042567399286 0.17416455422752242 0.9807009789954887 171 112 80
0.037823333837726625 0.29269769309111965 0.999885245263251 13 9 11
0.038419501489316166 0.3145674090550238 1.0259454863699133 8 36 7
0.07108911987346898 -0.14073665863884538 0.9111299278767563 173 124 89
-0.036808809937424414 -0.2840258799051312 0.9554018827630992 139 96 72
-0.0735602359348193 -0.09170178634535064 0.9562305451063142 120 83 59
-0.07106963371000641 0.10338226180484122 0.9789103931009882 238 148 41
0.044674757072172847 0.23411003346709797 0.9886535934242098 141 104 68
0.014058614165980976 0.13767297067323525 0.991490755100342 137 90 60
-0.11406573207205994 -0.15662477323518065 0.9524341306853765 158 112 74
-0.07374363298358899 -0.035413844225631985 0.9542060668925176 140 100 71
-0.15678465760562665 -0.09693589942175285 0.9782676908239385 175 130 90
-0.03144040736466458 -0.2965822663602813 0.9616804920034441 161 100 67
0.037880809154422594 0.25664928952078786 1.00733988012861 149 108 82
-0.0757293390786451 0.15288746111357643 1.0012729911026008 185 118 84
-0.07335490227521968 -0.08241752264817981 0.9521459986991959 132 93 66
-0.033624217029679174 -0.2562993079973591 0.9459383926566538 184 115 80
-0.06835558195292979 0.02491485295055429 0.9648285780016248 254 245 239
-0.0387053718787169 -0.2873500926965991 0.9248319000376531 58 35 33
-0.023800471903050312 -0.30691831492415395 0.9106184411297845 42 23 22
-0.04278983586250478 0.03342149546321711 0.9435195164492969 242 237 233
-0.07212319523058548 0.1882430530611804 0.9848414128342733 165 103 70
-0.07840092761612405 0.05526200852717089 1.013187026128799 228 133 37
-0.08501818294595642 -0.20853757264894535 0.9592114819574806 169 124 88
-0.036808809937424414 -0.2840258799051312 0.9554018827630992 139 96 72
0.038794413422161125 0.2782078567747521 1.022371244137157 154 98 77
-0.08095564921056164 0.06314683720400138 0.9972867523527955 239 218 180
-0.05502876737564533 0.023223454852001668 0.9506233435763645 255 248 241
-0.015795832749948627 -0.325630228625144 0.9185445278518369 2 116 1
0.188113050551369 -0.014332333982127266 0.9732738110182894 75 104 32
-0.06946071140616605 0.15612934000250256 1.021028053838345 133 84 56
-0.07738430805645302 0.10633182667125007 0.9944875221438437 208 116 26
-0.024100681973165422 -0.32852396765918507 0.9516124551700018 3 96 3
-0.05192074159976123 -0.19174592279028488 0.9143788353292053 149 108 74
-0.11518851989917622 -0.1573369156057165 0.9666344837157708 151 105 75
-0.032932287866027976 -0.0861173714370147 0.9220585273340096 161 120 83
-0.07041445105903706 0.1182627828389211 0.9797346434305515 236 146 43
-0.12221973472677083 -0.14226263927510274 0.9751424653648435 139 96 70
-0.031834587655569346 0.07868175700834845 0.9652845601902659 168 92 24
-0.1769388629768036 -0.0868515427256995 1.0111908272412966 168 125 84
-0.05607043058737804 -0.10321428675722899 0.9216337503359414 162 120 82
-0.09049677726390248 -0.20120157517191606 0.9484208880611145 166 124 90
-0.06976693737068529 0.043804188929596366 0.9733045813438044 243 153 40
0.042424057301414624 0.17118660352629958 0.9755849844423035 173 113 77
-0.06920703162199926 -0.08636609626099045 0.9323038319524188 158 116 79
-0.06337279867696388 -0.1300225567323342 0.9255663787244375 96 62 47
-0.00875684913268937 -0.11549218828074359 0.9089702422947424 160 119 82
-0.08564120641115713 -0.17749572815465076 0.9267732431375515 162 120 82
-0.2188637579705146 -0.060692950830070536 1.0455016035388627 164 94 69
0.009162285540928572 0.08201871142089923 0.9698358854125501 205 125 38
-0.03009860457198673 -0.016140417881200082 0.9286378916804874 132 97 72
0.04190373139372072 0.24103461673386972 1.019746107028539 0 128 0
-0.052210564459244435 -0.2026779250025147 0.9181022757814977 168 124 85
0.02061275357229375 -0.18742639264704675 0.9023257681282932 166 125 87
-0.007377600967398035 -0.24765886791001424 0.9252644314173413 144 84 52
0.03472439220669332 0.19754100384245454 0.9791073376966319 155 108 75
-0.006593603684222016 -0.08497878114583024 0.9126618161526274 154 115 79
0.012337006513683746 0.12341995679220974 0.9863176489180728 206 115 29
-0.1155369068996206 -0.15670607892591493 0.9628372439932502 171 127 89
-0.0164253876709189 -0.008790721838777991 0.9290759345265188 163 120 81
-0.05828768413778507 -0.10515495370910827 0.9223160598978116 156 117 81
-0.05983565584415309 -0.0832899077911079 0.9271911929085456 158 118 81
-0.0856437822788239 0.19608658327224232 1.0042127731943433 162 105 74
-0.07095882756682825 -0.1570636885911545 0.9235137660900725 138 98 68
-0.0760388730211854 -0.011199905157312964 0.9728398442712957 163 117 75
-0.1397394850890581 -0.11567475733088628 0.9690932565044694 148 107 76
-0.08158147824587236 -0.05064246277625495 0.971251915071951 146 106 74
-0.07659262468887307 -0.016904393786354097 0.9755125043004639 157 113 77
-0.0459457070169514 0.07003672820902902 0.9621088234513326 225 144 47
-0.15531268042448176 -0.09826722078086814 0.9769772403156984 173 127 85
-0.07353247900589954 -0.07510446296340012 0.949479751469511 134 97 68
-0.033998040842634136 -0.2615761494908364 0.9546986816120107 194 126 86
-0.07694220883054026 0.013432955427309712 0.9944579467044529 251 238 230
-0.03291229671508322 -0.2530641037936898 0.9468142822064802 184 116 77
-0.0408773634212789 -0.28850572162374455 0.946848757747242 85 54 45
-0.07615133211190828 0.05759124563478135 0.9886131596412102 187 99 24
-0.07256240197525532 -0.087928703949673 0.9420028078778059 137 98 68
-0.041911423070753795 -0.28743819090367984 0.9426688167460293 74 35 28
-0.08077185000812825 0.3199041234474551 1.0114029139914609 29 20 25
-0.07886478147676723 -0.004106229022365515 0.9865081955447101 156 113 74
-0.07909819844794486 -0.06963833750180792 1.0125742862599811 141 104 74
-0.07413245856305739 0.14385915247613923 1.0064993569799634 176 113 85
-0.11428764086830667 -0.15441679287737609 0.9490249313038597 178 132 91
-0.061781692821553214 -0.03573471008409845 1.033938490323457 140 119 75
-0.0703587187021456 -0.016021556820839167 0.9589700460863766 163 120 80
-0.08207174458539068 0.2068923516365544 0.9956575724116768 159 109 76
-0.07393424317889985 0.031846950615720404 1.0193462068176156 226 134 34
0.0476658812543667 0.24991135758271282 0.9945000816284081 76 115 37
-0.06173616974704477 -0.03562307801497505 0.938117536691542 142 106 77
-0.042082694014276945 -0.2886286496808259 0.9327276702304593 75 48 40
-0.15582092768613398 -0.10396538644072573 0.982986749586082 165 126 89
-0.19417250143219333 -0.050800916895018144 1.028199458741966 121 81 64
-0.06974740535915569 -0.013676556449030486 1.0234900493183834 154 111 74
-0.009608159473335454 -0.2209346322765515 0.9169948653364245 159 114 79
-0.07104222662203608 -0.1286412727798072 0.9376757347875659 123 86 62
-0.07843017404280128 0.050590964620712775 1.0022783558984278 241 150 41
-0.07878460705317936 -0.07965936200290002 0.9675059793221482 111 73 51
-0.07978203945302886 -0.0657665559387064 0.9675209362546195 132 93 62
-0.05863376421742039 -0.17342933064804744 0.918424971586953 126 84 59
-0.07937213370852123 0.17016001201854583 1.0086419712808772 183 122 89
-0.06533202328881633 0.050569938829082 0.9685112805566155 236 149 41
-0.011856780625886297 -0.31947295028783523 0.9115229532242839 1 124 1
-0.07528909646849824 0.057898382626004 0.9870770695465054 217 122 29
-0.07331139307600443 0.07026515650634568 1.026546414885555 255 165 53
-0.05182191142888082 -0.007834271060028541 0.9409553387506531 171 126 82
-0.0341572939555963 -0.15720629369253003 0.9119519752537846 156 116 81
-0.06858349419506082 -0.10629389851092252 0.9387123604125587 104 68 51
-0.07566229440289818 -0.0379301657685881 0.9587158694074444 152 112 75
-0.0946754208575431 -0.1255173151074036 0.9465242213634657 125 89 61
-0.0159416079854926 -0.18150971553566908 0.9073443687886479 160 118 82
-0.030528353185882096 -0.10882236917666477 0.9193033352713554 163 120 82
-0.08449350768421193 -0.07471767392157802 0.992978511100397 119 83 60
-0.08403607009735514 -0.04706233938083948 0.9981548381176646 51 32 23
0.04023509871353052 0.2873665194791604 1.024454475767683 38 26 29
0.0373400410508767 0.24595688618921893 1.0009767414996409 142 90 67
-0.08156332402710886 -0.02709977811966019 0.9812134154958512 128 92 67
0.02038334166720539 0.15189787966325266 0.9856242584382365 167 113 83
0.02846071329119315 -0.16559645985196525 0.9026032714312067 156 113 76
-0.08578258233581834 0.21473821442899585 1.0073656149734078 155 103 75
-0.004892288030795555 -0.15824054772444907 0.9055237467004107 162 118 80
0.04570898920098765 0.24024455603276795 1.0234017618805429 0 128 0
-0.03852598458413411 -0.2841003033833445 0.925459659965341 63 40 34
-0.07069346893985973 -0.021079791057991404 0.9560309377795849 144 107 78
-0.037266192643277705 -0.28067806302260984 0.9246652461141253 73 47 38
0.04274602321234125 0.2755732376667018 1.0011969414943058 85 44 40
-0.05618557700342297 -0.16937773991927285 0.9144602631119225 157 113 77
-0.10054942415837909 -0.18357735007093767 0.963608725610428 168 124 85
-0.19339546553102294 -0.0581479419234151 1.0235209702013157 169 124 81
0.04674539215637094 0.127370241325822 0.9701849532969323 127 146 22
-0.056154386889133566 0.0967290678880668 0.9702764044038741 229 143 41
-0.10061058747006313 -0.16885239772518368 0.9363235641143393 170 123 85
-0.03881592309000564 -0.27233584647929865 0.9506063814595815 123 68 48
-0.07728147566411936 0.11386479766717006 0.9918447979503209 238 147 39
-0.05984123479418357 -0.035269918600096956 0.9370330251969359 151 114 82
-0.07814929856451136 -0.05813527367043414 0.9637873806696906 140 98 66
-0.07173015794384097 0.14332358170019033 0.991388352387626 166 106 77
0.08288045172269487 -0.10069133843744371 0.9214026552162142 142 103 73
-0.20634180266559154 -0.06985701234413011 1.042678510389565 200 111 88
-0.08822004339904299 -0.18108415429197455 0.9287249683273038 160 117 79
-0.029350883072542293 -0.31882431735254857 0.9216349593170854 11 5 10
-0.028099211062406648 -0.2831640668408447 0.9147057306436025 49 30 28
-0.017306826466145786 -0.29851251727448413 0.9069884052549115 64 40 35
-0.06718508373172327 -0.1147469794718523 0.9493614872837255 112 76 54
-0.18385306116404965 -0.0638107074348695 1.0133884479953978 168 126 87
-0.08199284486322356 -0.0689834194387342 1.0051891509472513 132 97 72
-0.07167463991183487 -0.17670853051244317 0.9199214117843519 159 119 81
-0.1832784414285482 -0.056366452575931314 1.018883604505198 121 97 60
-0.07294092723833034 0.1795152347699447 1.0255366833872788 0 128 0
-0.026753486327527276 -0.0764592861212221 0.9201791413626942 152 111 76
-0.07063812469659189 0.0962053942974039 0.9778812924247003 230 141 37
-0.08598061797448864 -0.17584450690845443 0.9269051449839925 149 108 76
-0.008608336247188486 -0.11903177924895747 0.9084608191237737 161 117 77
-0.10426652691432708 0.29461444375451346 1.0595420042667705 26 16 21
-0.019735157601068254 -0.1903723280660845 0.9083162606538792 159 117 80
0.020858564883989406 0.17002643981100007 0.9930737717685316 147 95 72
-0.08116539046319116 -0.03833529366718935 0.9716410547307781 145 104 70
-0.028657017512403238 -0.24774899891094027 0.9358896086338718 160 97 62
-0.0035445175775531412 -0.09185083647917569 0.9107164621322795 154 113 77
-0.0680193071312063 -0.03023059544614326 0.9459977183355679 147 112 81
-0.07894713195404601 0.10509216223384099 1.0096028373256618 226 156 78
-0.08122372358745777 0.17337619706360208 1.0043161807987375 179 112 78
-0.0396250059874097 -0.0727543416914811 0.9254896583615011 161 119 81
-0.07886391802959569 -0.009377583266521744 0.9855864879719254 156 109 69
-0.07299730579122075 0.29247871698295547 1.0020004700314558 20 14 16
-0.01405572414531353 -0.2455498588352908 0.9267918381156858 149 87 55
-0.08009678180393942 -0.04622956228505892 1.0102707919567484 91 64 47
-0.018128290083318177 -0.1726828366129336 0.9079365401243571 157 116 80
-0.040217180403253616 -0.22821077758153718 0.9303265214663337 170 125 89
-0.06662213361758784 -0.005938186837155912 1.0244362132571054 191 128 70
-0.07351175203948646 0.09456365060015637 1.0246279144466723 215 170 130
-0.08253386095868151 0.24627692461426404 1.0102273828282062 148 95 69
-0.038381212253766575 -0.27075678352258253 0.9510811491954378 123 61 47
0.17092872685961702 -0.024862806278601882 0.9704032195347672 179 113 84
-0.13936098929111929 -0.1223085597117155 0.9810252991097429 174 131 92
-0.21507947535563554 -0.05488122567910886 1.0399558073878736 176 116 82
-0.0056807155841672305 -0.26823709476268065 0.9127565578089858 39 23 20
0.02114305415769757 0.09482267378045872 0.9681434162844277 218 132 36
-0.028503440767293386 -0.083791773293167 0.9202674552927383 158 117 80
-0.08096117892997379 -0.19290614266738926 0.9280620875079648 158 117 79
-0.1882100534929606 -0.07129963620364999 1.0185631045619816 184 136 94
