ply
format ascii 1.0
element vertex 674
property float x
property float y
property float z
property uchar red
property uchar green
property uchar blue
end_header
-0.02061075604545876 -0.10474947316375932 0.9146026211809954 160 118 80
-0.015274192949908283 -0.091188968259174 0.9143442945106869 157 117 81
0.051370994194708836 0.2011264231809776 0.9904035566476245 167 109 79
-0.07349146108216609 0.10197132301845357 1.0259579519511708 138 88 55
-0.09903724828588674 0.2825236354634455 1.0455285434012405 12 70 10
-0.06339969137455959 -0.14233388341523256 0.9272781940338144 105 70 51
0.007264658588290618 -0.1829375916625074 0.9099580882175741 160 119 80
0.014642412528032736 -0.10719577596244077 0.9137317641299242 154 114 79
-0.10917715278870714 -0.1774993391428012 0.938065679034515 153 113 79
-0.13752028641558112 -0.10149684315444674 0.9617599231204419 144 101 68
-0.10055074958713764 -0.12688292761744852 0.9508801428178469 121 88 67
-0.08496630968628205 0.29489675463539555 1.0154482549873542 55 40 42
0.009084579522105231 -0.151084605208914 0.9126230124804682 150 110 78
-0.07334064126932283 0.004922100778577576 0.9768467022918573 236 221 210
-0.028862372910219335 -0.16072100078068824 0.9162522104101877 159 116 77
-0.11662252240921145 -0.14729012992920287 0.9454879597508521 177 131 87
-0.0260894758135601 -0.10688111089132438 0.9160757801577406 158 116 78
-0.05351301721377159 0.02009520078135511 0.9463442735933616 255 249 244
0.003670811221496372 -0.17215999822567307 0.9098876273476274 157 118 83
0.011637030336937082 0.11928832023457109 0.985357796016576 203 117 31
0.07494059995570121 -0.16863646972518995 0.9396852725749241 178 128 92
-0.08040742086921664 -0.08734358663675663 0.9381173368626674 143 106 75
-0.054456319959632085 -0.10592722753483996 0.9239388354386392 141 101 70
-0.022689898431542233 -0.129077520815001 0.913236075951955 160 117 81
-0.0801482054812436 0.24525415974150047 1.005598172404503 146 100 73
-0.07823334904964618 -0.04283040400496674 1.0138539656461933 138 102 74
-0.05406965938456216 0.06404278128211784 0.9616468074940715 225 145 49
-0.08690309640803484 -0.20390050212932698 0.9440105563313692 177 133 92
-0.06776566745968314 0.19658800065376866 0.9835254661277057 157 103 70
0.024697790508231954 0.1999099395989905 0.9951418103679164 142 96 70
-0.05753249139964451 0.10266601616138994 0.9726145982436755 233 147 43
-0.1652679885894861 -0.08563248405666068 0.9849223425788209 173 128 86
0.17601458554725444 -0.018591606681604558 0.9817273114816146 163 112 82
-0.1827668032557016 -0.06354966526756778 1.0122347102851434 158 117 82
0.0032264731598552836 -0.00893047695059451 0.9334564620007086 162 119 78
0.01282026132579322 -0.043847826616570565 0.9252346927028983 158 117 78
0.073699674363441 -0.08057990667943479 0.9399869563721082 94 65 48
-0.1174285347378633 -0.14315280658473828 0.9812329573690416 170 124 86
0.05763846616254739 -0.11978965549000843 0.9218097145712283 134 97 69
-0.12557428996292075 -0.13359376713197646 0.950938062347637 183 137 94
-0.03468183957426411 -0.3248128269491367 0.923914413052607 0 132 0
-0.1509993283837363 -0.0745042368322173 0.9836329682234288 120 85 63
-0.0218952858861772 -0.07693645716675178 0.9187047426113912 161 119 79
-0.06391303683365668 -0.07361795282187061 0.93092643147952 163 121 81
-0.06783807595696445 -0.06481818640180477 0.9315657128588177 150 111 77
0.045750601698357235 0.24379194118878034 0.9913027917420207 75 115 35
-0.06925994871042905 -0.09085870946474764 0.9291998768810914 159 120 84
-0.04552016945525466 -0.2668146464767482 0.9527057987620846 201 115 73
0.03528113535447728 0.2155423063731171 0.9869332110158804 146 98 66
-0.06082760822366029 -0.13765005584194417 0.9196948603094351 130 92 64
0.054641979466183946 -0.013545139434228585 0.9873359325460389 44 123 20
-0.022771816744552975 -0.12035858039471137 0.9146115525671694 161 118 79
0.0270557247578111 -0.17955977445463817 0.9110341749192 161 120 82
0.08937890114961258 -0.08758687286656491 0.9308008044513735 134 96 69
-0.05440788903024799 0.011323342481727706 0.9514572798927202 255 249 243
-0.06987260056389899 -7.47836805214952e-06 0.9599530895581894 167 122 81
-0.09070362926417422 0.029772490668427402 0.9929452489631436 245 246 237
-0.09233774024256358 -0.19479146071868492 0.9411968564844293 168 124 84
-0.06919724312218363 0.1299644982955547 0.9797984778467231 246 155 41
-0.05303876784093805 -0.10884085338772427 0.9229906123366264 154 114 78
-0.06570215528239012 -0.20435221579426127 0.9256702057112056 170 125 86
-0.048160931346047646 -0.3032735173975975 0.9419009930541097 59 34 29
-0.02486281615921195 -0.04969664259357589 0.9223388147715903 158 118 84
0.0036568261366567434 -0.2470738089059492 0.9259027018400263 76 110 34
0.02800173715312665 -0.07513987823121535 0.925059129212288 149 111 78
0.01870779058511648 0.14470254378650654 0.9808723415296848 170 105 81
-0.05787410587890933 -0.18082528335024053 0.9174206097489258 165 122 82
0.023086536956105963 0.19113908033107552 0.9952451078197389 153 99 73
-0.05947027849046825 0.11952784404983557 0.9759786297441774 233 146 41
-0.07559232132557958 -0.011649195158245002 1.0127381950536463 150 108 74
-0.08212412921249422 0.20606308975418572 0.9881098452365122 151 99 68
-0.005046916581896266 -0.12592385807227435 0.9067163105856051 161 120 82
-0.10505988688813288 -0.10889927012197897 1.0048408591637916 0 128 0
-0.07704251471060797 0.017332176418223044 0.9911177129566062 246 231 221
0.036777485984061775 -0.08156698567648452 0.9345601703143137 144 106 74
0.03846248047133247 0.26386516463544196 1.0187929284855601 172 122 91
0.040979838138783135 0.16567869514294573 0.9820734906375675 179 119 85
-0.07920249268562041 -0.01744459442133489 0.9938954507866558 150 108 72
-0.030728411308493884 -0.22542014984361833 0.9245404393256319 154 112 78
-0.11298803990922446 0.31349308471775617 1.064699347537517 170 147 127
-0.03977389951730363 -0.0661312352529543 0.9238477657897469 162 119 81
-0.07881298376397827 0.09631881224612648 1.002092150804455 241 150 39
-0.08083228913172497 -0.2001422265467352 0.9315549269596616 164 118 80
-0.030378999585326305 -0.256301821164278 0.9612639279739885 186 121 79
0.01057743043111695 -0.03441113134534518 0.9264993253272027 155 115 77
-0.012399847645078288 -0.06232706086159112 0.9180648879023071 160 119 82
0.04594584116288062 -0.01318139903914351 0.9646286689472169 168 125 83
-0.08598632715886641 0.2032972415484765 1.0258574616717884 0 128 0
0.05369141359428163 0.2224251718072812 1.0013761175692626 142 103 67
0.0477125547692691 0.23819158939338012 0.9899974061119433 77 112 36
-0.03497052502563968 -0.06798946030001636 0.9223297568996089 159 117 80
0.0035445571362722195 0.06725721450658528 0.9673060838908645 184 101 26
0.12293489119739599 -0.05319777316076773 0.9568244342575887 127 92 67
-0.037467794886560365 -0.2679551958495638 0.9292303100208377 48 27 22
-0.08412872191115797 -0.1846096316574222 0.9273365195064256 156 113 77
-0.21863856649829838 -0.051097760762280675 1.0439128207697204 146 93 64
-0.02700804028523699 -0.2868153684910855 0.9151070010806275 46 28 26
0.0810054347524153 -0.0786864949297695 0.934528929328437 131 93 65
0.05150609470144163 -0.04558883680880798 0.9650344317552708 143 103 71
-0.04594504602018467 -0.2883789412055868 0.9284972722562941 58 35 33
0.07475257483131693 -0.11746378178900901 0.9188234792679075 160 120 83
-0.07284429279031923 -0.08870242433764552 0.9474703759995191 116 80 57
-0.06360994174694497 0.11327334866579578 0.9749677846666769 233 145 41
-0.08478481954488304 -0.05585671620397292 0.9824512850522322 125 91 67
0.09472924428906689 -0.11114710930422825 0.9401710433829293 162 121 83
-0.18485778858813662 -0.06875138248683133 1.0136816313657087 174 128 87
0.0633121625526707 -0.09095472168427766 0.9422020053394446 94 63 45
0.04284992215881694 0.25987025276633435 0.9975362673930429 74 118 37
-0.0026116675379818126 -0.011544346499814208 0.9339396230363309 161 116 77
-0.08461307596502943 -0.07715105920520204 0.9846317543933989 115 81 58
-0.07596978186898155 0.18948515802023994 0.9829408245970837 169 109 75
-0.08261722661474523 0.1493656180995427 0.9982317002498965 180 118 85
0.05039309385246419 -0.15594471420139236 0.9130025797153962 143 104 73
-0.06139627438621109 -0.15051877648575074 0.9248608448353466 114 74 49
-0.07543551737063893 0.21658275142805652 0.9924001477903385 147 97 65
-0.037695644949837126 -0.16065246483856854 0.9119158880155813 151 110 75
-0.09407561611741004 0.3143407301789245 1.0075540089931412 40 28 33
-0.07131655112229876 -0.04533628562041035 0.9359902055809961 161 120 82
-0.0464139227575141 0.020474276318061275 0.9435687294873979 255 248 242
0.03653402340018055 0.279296161083407 1.0269274869070832 167 110 89
0.024720235835372285 0.30453667341087154 0.999791233502836 41 28 30
-0.10646256545725086 -0.14566249852078483 0.935819870366261 161 120 82
-0.02617471722255295 0.12300861660528248 1.0220053544729564 8 127 2
0.017640450629013538 -0.1817876711727937 0.9021477677474292 168 124 86
-0.034909554281842156 -0.10273554426101555 0.9199598100240629 164 122 81
-0.08600701155848577 -0.16607309735713557 0.9262313087050648 158 119 81
0.06164036017009061 -0.12506718578602666 0.9180141238772074 139 100 69
0.06287481171943635 -0.14015090836784516 0.9143035832013949 164 119 86
0.054787535073343274 0.13233608904092722 0.9884670708933296 160 139 34
-0.07035219957160155 -0.10058031562285663 0.9465437220393031 112 75 53
0.19482563786386572 -0.03293916402453288 0.9913622978430169 84 109 36
-0.20156854385584388 -0.07479105356706861 1.0485868419804196 173 82 69
-0.04824001056786591 -0.3014564124253996 0.9320211855526602 58 29 33
-0.07992718451482482 0.19458322323121413 0.9841446980856289 155 100 70
-0.040371192743912133 -0.22767909153461094 0.9315154243634164 159 116 83
-0.07724044711760358 -0.19270191998180186 0.9260070255863379 153 113 78
0.16530696598041472 -0.05027140615363322 0.9868052621603407 135 111 59
-0.07601400651516277 0.05582045820915127 0.9883696804982768 202 110 30
0.05659276910094321 -0.08033318747630815 0.9737891867436188 111 74 51
-0.0771976990556823 0.16397348817526944 1.0215537982617775 116 109 51
0.04551993929358874 0.2661691250034798 1.0050281983279876 147 107 79
0.05082602604618458 0.2702374604737061 1.0011647538927546 111 77 58
0.01737941378940942 -0.06567716922025277 0.921847077499967 155 115 80
-0.03615449084216967 -0.301888115056771 0.9147180754706739 57 34 29
-0.0377943585843978 -0.18639360958521956 0.9129512478574712 142 101 69
-0.08505482353386118 -0.0561024368087395 0.9842324394831975 127 92 67
0.05359972495959394 0.2389930192301253 1.0040486221881006 104 104 50
-0.07542645468461961 0.10346366258166917 1.0232192699913933 192 116 39
-0.01913272605398142 -0.1373365317896317 0.9085034481137492 161 117 78
-0.0765970507295024 -0.048775017958378575 0.9603038234289529 137 98 69
-0.026179422959458923 0.009430309976299175 0.9495146119829804 218 201 186
-0.0830205272033526 0.12953594920533051 1.0106235638152372 235 140 43
-0.08457620637507765 -0.19846021651897933 0.9322801718102246 159 116 80
-0.22653464342038276 -0.04401161596561298 1.0548474364912215 148 83 61
0.01683421121023813 -0.04665947524983981 0.9250938404658726 151 112 79
-0.07774458895473768 0.0404069674097951 0.9948231004671242 243 148 37
-0.015041732954019619 -0.27976520803321675 0.9125014265826566 29 16 17
-0.1952047480220267 -0.07172815805598387 1.0289906866733904 185 134 90
-0.010016999922352044 -0.10526035226443309 0.9127926952501192 156 114 79
-0.09116514382196339 -0.20153224460779073 0.9593572042334129 172 129 92
0.04739352901829034 -0.19258824629307386 0.9218204753486166 153 112 79
-0.03728230984663647 -0.2487102139685554 0.9381463646801463 149 91 59
-0.2084794890359093 -0.06464891369971808 1.0256484707718063 183 135 88
-0.09841624959976802 -0.18798470597757877 0.9507161554898602 172 126 86
-0.005608483156202635 -0.1434014480953471 0.906768210299235 159 120 82
-0.03180620079569596 -0.09660318875517748 0.9207922506911794 164 121 82
0.034690272577519964 0.059827786097729055 0.962675417685415 231 144 41
-0.07831708204607224 0.023916256899908728 0.9956443588715546 254 248 240
-0.016805462507385238 0.011302166741480784 0.9494153722443127 231 216 206
0.01640209796772464 0.15259493049485573 0.9830945992240191 161 103 73
0.004294159027493178 -0.3088256726955844 0.9227429976439345 40 20 18
-0.029570753218421397 -0.21404271452171197 0.9159582168949976 168 125 86
0.013067691490190053 -0.2851179995918824 0.9392469454556225 68 33 27
-0.16401307617997596 -0.09802734574800409 0.9943143234726305 171 126 83
0.021655157833769978 -0.18490013437558872 0.910794036985787 155 114 79
-0.072305656678885 0.07734119884160329 0.9798735626733428 245 155 44
-0.039623414437423864 -0.1900085393328074 0.9125095533101579 152 110 75
0.027759705093288806 0.2315529335951179 1.000213969104449 136 91 68
-0.047267862973666426 -0.02610519610120969 0.9293882871364147 147 108 75
0.011689793088526792 0.15144019675591855 0.9898046114445792 153 104 77
0.06702073695130885 -0.12084890207143253 0.917748622600906 138 99 70
-0.0777418250030793 -0.1928297912755388 0.9236015404067736 159 115 80
-0.09323014395475666 0.2447518642276183 1.0117476859701957 41 118 20
-0.010380369126860245 -0.25528863333041796 0.9208094217926721 52 29 27
0.02007352575503622 -0.1288582652341942 0.9209639857055683 136 96 66
-0.082004526473706 -0.017429131750555764 1.014828594854231 148 106 72
-0.020079275543918296 -0.28433915765757733 0.9116188847722829 50 30 27
0.0314368845493932 0.1494800061882408 0.9811023319431479 186 129 98
0.01894111877391472 0.11595609681159674 0.9723491489834808 229 144 41
-0.20345580478288483 -0.06691583655129973 1.033986155426392 212 127 92
0.011171575109116753 -0.2822051411606397 0.9357276296558877 69 41 33
-0.08671351365270881 -0.0726840184782108 0.9709904540604367 127 89 63
-0.012555006581814248 -0.20367592777315865 0.9144567713539649 166 123 88
-0.07937498488108807 -0.20843956444266176 0.9391916107340059 175 128 93
0.0427830232011712 0.278959395189626 1.0024837606601034 120 80 65
0.06858956139742857 -0.13395612241241023 0.9154640925358203 161 114 85
0.04711894844660378 0.30199576550826635 0.9987195821725053 32 22 26
-0.07709745050191419 0.05352995065426702 0.9914445433261452 225 133 35
0.02974218262126966 0.10500518822837467 0.9679944435147743 228 141 39
-0.07441202179739759 0.01521370672698552 0.9801030128085046 250 235 223
-0.07838456121665818 0.019178263436818686 0.9692030178868619 254 245 239
-0.07848459470659053 0.031523137393985934 0.9909348689738956 254 252 246
-0.01073539549475318 -0.24577230679833514 0.9293432609084762 139 85 53
-0.07834269333364519 0.06783791040062326 1.0174816120864407 201 110 27
-0.027345074158256506 -0.22457706823177526 0.9262991577493059 158 113 79
0.060213099251015145 -0.07106691081502081 0.9266041958549286 153 114 80
0.022915694809033507 -0.026340909089271246 0.9293090794499739 131 97 70
-0.012654107938144143 -0.09623621295320905 0.912557383659402 159 120 84
-0.046923604247081425 -0.30759415410741564 0.9323511078899114 45 20 23
-0.07738858881948563 0.02474039428168262 0.9882829444468051 255 248 242
-0.044078779646528427 0.059796479388498094 0.9595259078883552 214 135 43
0.01577918643740275 0.17128585232689614 0.9948875918748751 147 95 72
0.04276814501304521 -0.05676320104334461 0.9415039856139851 122 84 62
-0.037857497114445526 -0.05114474600103547 0.9258290048376168 165 121 81
0.02144948491033789 0.056231828535261714 0.956632040339404 228 144 45
-0.005479310728287112 0.000293912017521783 0.928619539356339 168 124 82
-0.07856875385432517 0.2902116547837324 1.0051935735349335 13 7 10
-0.08197895510946784 0.3193560287833743 1.012815608832368 19 13 18
0.05328588518731307 0.07035058344778884 0.9817448134850985 218 125 30
-0.05076401973103271 -0.03402109407816884 0.9295680229754533 142 104 71
0.03834907993990643 0.1905630033214418 0.9793788744363939 159 98 69
-0.06367275590183841 -0.14732913456995722 0.9263287080639846 116 76 51
-0.03511213187763344 -0.04286823938362319 0.92340411388775 159 118 80
-0.17215036400973038 -0.06294129730044307 1.003730973490132 103 73 53
-0.023556549802227267 -0.25947651057787874 0.9197716893676577 44 25 23
-0.08225356672030115 0.15534865668644576 0.9985478231426109 183 120 84
-0.03278823719488994 -0.31303306065142344 0.9146904247838501 22 12 13
-0.0513849881189889 0.02315145817514129 0.9462592832445827 255 252 248
0.07831963175743802 -0.09476722788445113 0.9262906235298222 139 101 72
0.023456902058271716 0.01695551612052285 0.9438176938143198 117 178 106
0.17586135564526786 -0.04386805669742888 0.9869223720108299 199 119 87
-0.024528789736114165 -0.20108027895688463 0.9104837070474323 157 116 82
-0.014863794303778162 -0.23795788700901024 0.9289736203884007 160 115 78
-0.0652602079725888 -0.2152735882625545 0.9349518002251416 173 127 89
-0.04673919196247847 -0.26558744562277087 0.9488447494773199 125 53 43
-0.08176900025754874 -0.02732795311574615 0.9830359693458661 140 100 69
-0.013982734913296989 0.11825548916709384 1.015793783920169 0 128 0
-0.19498799691198643 -0.07571479727207997 1.0357943471364814 194 145 103
0.006325293585394611 -0.11450742910143318 0.9102837608417947 157 117 80
-0.10987798071761401 -0.1655868343363287 0.9565938756717205 162 118 84
-0.2073832761107363 -0.07284798479270829 1.0307712754236356 193 127 90
0.024941639350588525 0.1395180025581688 0.9786638516806874 149 97 62
-0.07556304768981147 0.320158939617288 0.997578834223368 23 15 20
-0.07255110492335337 0.13857846288727327 1.0103725490030098 166 107 75
-0.10813573100666683 -0.19374887524411216 0.9451585587021174 160 129 82
0.001835953224406106 -0.15984947299250551 0.9038328387669605 161 120 82
-0.05380287491078187 -0.06102549035102667 0.9294353328207604 151 110 74
-0.06972047725288052 0.17998650817437817 0.9824565106400889 171 111 76
0.01870103220962712 0.009963796734299521 0.9447333643940953 250 237 228
-0.08455013024600999 -0.07885962378379929 0.9843592979624 114 79 56
-0.01811767585980478 -0.28390014031823496 0.9105747508464377 40 24 21
-0.20855105347289127 -0.04886118963605551 1.0361802888879077 171 112 86
-0.0002888882221758103 -0.2789265113142476 0.9198106387894124 56 35 31
-0.04983181798511915 -0.2200462123180058 0.9275802114248088 171 126 86
0.010857479464975095 -0.1757740825593216 0.910026303095716 152 113 79
0.029624561943741856 0.19169837435896575 0.9805768658531266 165 112 76
-0.08323795039991339 0.2247807249616922 0.9949846484037336 153 101 68
-0.06621448456803836 -0.11732690093831577 0.9321705142193885 99 65 47
-0.0016212431930097435 -0.2667898410802982 0.9247301235392442 60 38 34
-0.07812457040529375 0.037910297947253424 1.0021947272667833 236 145 35
0.009428447813499871 0.01129719766789221 0.9488082353211982 252 238 226
-0.07706181938850354 0.024959892672146378 0.9864941415855086 255 250 244
-0.009212959405946554 -0.1875126392074184 0.9062865257992285 164 122 84
-0.1726052815084097 -0.061598949277070436 1.005577409128473 54 101 27
0.037119452317899745 0.20370578243597615 0.9810249529296896 150 98 68
-0.07828854257307083 0.12062943942873972 0.9985451925313304 221 130 32
0.17245540000833845 -0.048030673181566896 0.9901796268860997 190 105 82
-0.08010640939711788 0.08035588389693471 1.0168120860035303 226 215 185
-0.04035055269133319 -0.26980895285273393 0.9311321849521518 55 32 27
0.04644135629225556 0.2654164637166108 1.028601390533259 9 44 8
0.00810061902391146 0.050378545223867116 0.9535274492329844 206 130 45
-0.016878505945744915 -0.10559887014325842 0.9133861696990653 157 116 79
0.0554471829881467 -0.06476745114572723 0.9672931990487476 125 87 60
-0.04541807348126342 -0.2700201006289002 0.9392985941321652 160 102 71
-0.11488052772080831 0.2965105108995566 1.0740439470281133 60 44 48
-0.07705132578395513 0.012873495290568915 1.0002943061215592 254 241 230
-0.006679449780767941 -0.3085835526295923 0.9143247764821202 45 24 22
-0.08263450025615002 0.12887903924677382 0.9850763378076626 249 158 45
-0.015449715803917706 -0.13538532006888668 0.9086192058090072 162 120 83
0.01581097211637657 0.10775641811364726 0.9710951360260466 222 138 38
-0.0783307728098991 0.04351156547745192 0.9749334310276578 243 152 41
-0.0449109787635221 -0.30001151481677657 0.9556494470219863 83 55 46
0.010604150697697936 0.04928160941296726 0.9531998263079006 211 131 38
-0.12194672258800354 -0.14447182560267757 0.9581319459504325 179 133 89
-0.06312478096471193 0.212573017840762 0.9991363871585975 133 90 64
-0.11686099465513815 0.29606488959139554 1.088813485036158 52 32 42
0.023658426747185775 -0.03319782014921306 0.9284615593154923 147 109 77
-0.04480196080292624 -0.2852437324863522 0.959248354822577 139 96 72
0.043057455913777354 0.058894960151170725 0.9694927008424011 246 147 34
-0.07648479115487772 0.007792472778399229 0.9976718384013692 243 228 217
0.11242466894412984 -0.0689604463154588 0.9487750276633437 157 116 79
-0.12847350515193157 -0.12395158123619021 0.9512398947709014 164 119 80
-0.015968943885365846 -0.1947460281701922 0.9074870540459203 164 120 82
-0.05902361716165094 -0.11866904032510822 0.919793072690799 158 117 80
-0.07413932972464121 -0.04235985061746885 0.9388533699322951 160 120 83
0.021701609472999213 0.013980386278767784 0.9433007330388296 125 182 113
0.019948480915944564 -0.14969430710212833 0.9151304536656595 129 91 66
-0.038085358668307645 -0.28165692413951327 0.9532499258769174 183 119 81
0.04058265985258036 -0.07723212746758067 0.9413305390355269 140 102 71
0.039098055122341185 0.1918256090395088 0.975861657484263 82 117 35
-0.025269803659472463 -0.1319321508844247 0.9170581115470535 157 115 79
-0.061174239689732124 -0.19923991526723417 0.9205760491481412 154 109 73
0.053635005388837566 0.13419932559702802 0.9861198319070594 0 122 0
0.006689997095661537 -0.16342511995905307 0.9030708022185505 159 119 82
-0.0038238955824652166 -0.07229580563744616 0.919952021701469 141 103 71
-0.03389810069179899 -0.16816227683403523 0.9121329478121323 159 118 81
-0.06562600918911264 0.1662083106461963 0.9824041396659334 175 113 83
-0.09389218896020499 0.2876138599486373 1.0593008978745682 14 16 10
0.0019160307435230348 -0.3152302859595657 0.9243711839274189 17 9 11
0.041966653579977156 0.24295158190618796 1.0239373782118002 0 128 0
-0.0025575704756935704 -0.13647514110332953 0.9073958290182353 158 117 79
-0.07632762125008818 0.07571143434669647 0.9896800284691715 159 80 16
-0.011172416395568267 -0.0865160450531944 0.915723332680691 152 113 79
-0.07507271218326328 0.0204405498106921 0.9807040659586068 253 241 231
0.012971261392238314 0.13249902050722695 0.9803050897196574 227 140 38
0.04310836366096565 0.31759577744707085 0.9922875222310261 20 12 15
0.009974170012547074 0.009620352815864154 0.9417494489099965 250 234 223
-0.10994965976736393 -0.16650574935507567 0.9619953723327412 147 104 73
-0.0015719584156981777 -0.2805960872925197 0.9175395047989335 50 31 29
-0.17975121909487268 -0.08243588879250607 1.0122279218548942 155 114 78
-0.04133020628433196 0.08883128026936712 0.9701547684490088 217 133 38
-0.0061330940298007786 -0.19987537779630493 0.9081128786213594 163 121 82
-0.020546953370362674 0.009426626959216599 0.9490976342738524 224 211 203
-0.08278874217205132 0.12930846170499136 1.0162797392071465 243 151 51
0.045527650169517514 0.20640315172429335 0.9850221643946508 155 103 71
-0.07846934106392323 -0.027648227942369208 1.0064075852651624 131 96 70
-0.08304885501226927 0.215717814318005 0.9913437325061962 152 102 71
-0.04144996637616334 -0.2908715022636287 0.919702758053035 53 33 32
0.02926183215489364 -0.11836287535721915 0.9240917211291627 142 103 73
-0.07317052554557502 -0.09314026813981124 0.9542353045687739 122 84 60
-0.003530347000381068 -0.30368989869980445 0.9170364962394498 63 39 32
-0.05969612439519959 0.08169355231148695 0.9682578713706249 237 151 47
0.1974992810922575 -0.012666998952872014 0.9891171580094289 154 82 68
-0.030528353185882096 -0.10882236917666477 0.9193033352713554 163 120 82
-0.005321156644304452 -0.19596217224407173 0.9121225843305366 167 124 83
0.0012863513008560265 -0.2139301127389308 0.9146397470111528 161 118 83
-0.02420548727696744 0.006923834966903214 0.9391057185765315 197 182 164
0.030093769943338976 -0.19849805390441058 0.9096326022815736 156 124 79
0.0902483811047235 -0.07002071881660386 0.9425193043378823 126 90 64
-0.038234385452718817 -0.3201204291946775 0.9528076458566092 8 2 6
-0.08478094571653517 -0.041366683155478465 0.9551220909921881 152 112 78
0.009520721893417596 -0.016319300503810946 0.9326249702853502 135 99 70
-0.16255747128404544 -0.08851973389339657 0.9673352208322751 143 105 72
0.0045785022403501165 -0.10994894650135191 0.9117129590204051 157 119 83
-0.048932283582966224 -0.20482243700784203 0.9195919688801779 162 120 83
0.011527660178462731 0.1031322405961421 0.9693336172043255 219 137 41
0.04794633378209793 0.00017392360480223527 0.9763157703348685 160 117 79
0.0007371274559550666 -0.14912175965359376 0.9063795068399404 163 120 81
-0.1233059579610465 0.31328845714171777 1.0589227801547212 183 161 138
-0.06578944826737101 -0.0757681444996896 0.929125643266906 154 113 78
-0.14379309506491922 -0.11504203282794033 0.9539000490090221 167 127 88
0.05365434232518254 0.0847757052679232 0.9876756723170755 238 141 30
0.07105387040939247 -0.08152885457462476 0.944923873375571 93 63 45
0.032867281650127665 -0.14731072271117923 0.9228145984320161 113 78 55
-0.06533279643524145 0.05700921152305074 0.963662060427233 220 136 42
-0.03364808375587564 0.011487975194114134 0.9411850500889125 240 222 210
-0.009794811965888951 0.11026624384883557 0.9978851738318407 162 92 39
-0.1713833588396247 -0.07036745016794262 0.9926662869859223 107 76 54
-0.10455228847919068 -0.13243171161561745 0.9464400894034917 125 89 64
0.03259069466267519 0.1510683795983004 0.9800866712393244 175 119 87
0.029832099565624274 -0.026025785312570802 0.9337408160955364 143 107 76
0.03276828734835871 0.021658785340256864 0.9561528200505227 249 236 230
0.041680993478423474 0.3268983524091378 1.0044688247102787 1 115 0
0.024624935694789088 -0.00942257526481289 0.9416647741520655 159 118 80
-0.21853315795173373 -0.04651119591208573 1.0315939124298796 139 83 66
0.015712870507532298 0.08259386243184742 0.9621043917480133 223 139 43
0.12097415576755338 -0.09026009471131034 0.9609315128066824 122 123 61
-0.028666903501782394 0.08217155137093053 0.9783623704071996 178 101 24
-0.020003916159856448 -0.02352877515011116 0.926080804533213 150 111 77
-0.05516138433539389 0.051289168392422674 0.9597790368711548 217 137 44
0.0016028676353617376 -0.2725657404259817 0.9231827520717076 58 38 34
0.008608238492053234 -0.04874090070027678 0.9245260315067989 155 115 79
0.030571403105061817 0.07769533030284241 0.9639926067481982 232 144 42
-0.16192477573322395 -0.07021941590289531 0.9934582054018547 100 71 54
0.03840809053334498 -0.04697212263913829 0.9376673503634093 144 104 73
-0.06741540667558502 -0.00574201525535223 0.9491144888967523 168 124 84
-0.022712782131868902 -0.2068604289949595 0.9110004110611498 164 121 81
-0.05149287804942115 0.06284756148054221 0.960702408312717 221 139 42
-0.0028894941320985537 0.035999040227997235 0.9464605323005265 177 131 97
-0.07830805997507523 0.15942632927579686 0.9852398249793737 178 114 78
0.020119106577519932 0.21068645429180452 0.9870678212569859 141 97 68
0.03449214253483178 -0.19529740271711518 0.917465063998487 164 122 84
0.06204159790909649 -0.16739085376591786 0.9231925216733251 164 120 81
-0.03367416316064844 0.1288818617507864 1.004965004380852 180 90 27
0.07088578101070013 -0.10830083334943265 0.9194770245784549 156 115 78
0.005474191979594698 -0.19029714212366572 0.9108344267865391 166 123 86
-0.023387019227642036 -0.16760022945815078 0.9143619074488298 159 118 80
-0.033689926643707874 0.01879733226116494 0.9498449943789843 249 235 223
0.007273178561222846 -0.15805402717350858 0.9113067910257571 154 112 76
-0.07190581952039203 0.017418368713488876 0.9584586989091921 255 246 240
-0.0495880376327299 -0.1847978211036437 0.9127356837134664 165 122 83
0.1633368934817045 -0.019873007618109357 0.9816013820902233 149 90 68
-0.06500263364381798 -0.11600564737269212 0.9232019547463779 159 120 83
-0.11655099541878569 -0.15246305596314302 0.9353453360256646 157 115 77
-0.05092945195560254 -0.10745224619180777 0.9228269911776917 138 99 67
0.10933914988626776 -0.0670294470711247 0.9481276894995738 155 114 80
0.030524139176874354 -0.04439987552874943 0.9298563762352026 147 110 77
-0.15418645960690924 -0.11406927793509168 0.9647213984886697 150 108 74
-0.062892538211619 0.03316867177153217 0.9562039270769725 247 243 240
-0.033967165145254226 -0.026621019665924568 0.9259626776482318 150 110 75
-0.04770326566358758 -0.14436063614885983 0.916795392884008 149 108 74
-0.08666207598581815 0.17534156579088916 0.9900014884664107 177 109 78
0.1004829252994646 -0.08304688767549341 0.9382447769122173 139 102 73
0.003475444918804597 -0.2269063651116359 0.9299684935719359 161 114 82
0.04125304565441737 0.17641853774880822 0.9810552524284983 175 111 76
-0.08010939545362804 -0.14632482016732398 0.9279143804008093 141 103 75
-0.0630385038545984 -0.031450114253904975 0.9401820907233207 140 100 68
0.026304102817893273 -0.21748969649549243 0.9274633296243469 158 113 79
-0.13015766423173009 -0.1403420439129332 0.9475052359811129 147 106 73
0.007267732562090415 -0.16868562997717237 0.9105024173655613 155 113 78
0.06673548072816668 -0.09852204059699032 0.9290961709532806 117 79 54
-0.017951665275323877 -0.1620041635541005 0.913305900352595 161 119 82
-0.03584013810132541 -0.09908669563967903 0.9203718082599585 163 121 81
-0.01638460841266275 0.05455204597957007 0.9653499870265657 111 52 11
0.015694886245651223 -0.09250132950629887 0.9144179510833079 158 117 79
-0.05125743085661406 0.008727948356208744 0.9439876120893501 254 244 234
-0.07035664101186373 6.575797896573835e-05 0.9541218030169353 167 123 82
0.04939602388686476 -0.07571569303311186 0.9609964194328984 101 65 46
-0.052775963956056875 -0.09833104674892706 0.9247922102988189 138 100 70
0.11422117819086025 -0.06048267885358022 0.9502129692578923 137 102 73
0.14236026665457982 -0.06221719071875303 0.966607975899101 162 121 83
-0.1673082735587401 -0.09450818487280946 0.9761654257773246 172 128 88
0.001622757342044457 0.004147114095801197 0.9367280538635966 161 121 83
-0.057573946068483865 -0.0782932298319496 0.9272696374558257 138 98 67
-0.040418896095817024 -0.06993402031959567 0.9241095344251864 159 119 82
0.014920296680602987 0.13975935307261156 0.9813461407193184 148 102 75
0.12994530047057032 -0.056417884353083154 0.9563472119822805 146 110 77
-0.03763257377717757 -0.04211169546014466 0.9241942364600592 163 117 78
0.0018740656118033635 -0.16676944523678594 0.9098395220217259 161 119 81
0.03770255966566769 0.10758632909883716 0.9721268407997433 222 130 31
0.035327396817344 -0.020322046734996654 0.9475174931965155 136 100 73
-0.06547408495913165 0.050412318047335966 0.9630872334045923 234 148 43
0.011932058502782459 -0.14495275029566504 0.9097902198687768 144 104 73
-0.004856498124347995 0.04942029879551576 0.9550750622092709 176 101 32
-0.06352252313298298 0.18288107826379696 0.9841156021989915 167 113 80
0.013491462322518376 -0.3161716725806701 0.9389835383364069 18 9 13
0.029462499067372302 0.20092493457595942 0.9797603533246314 159 107 73
0.058501270645961584 -0.14160196784235501 0.9153244534967905 157 116 80
0.03672304098112344 -0.09179562412435625 0.9293955228514881 145 106 74
8.150251069774094e-05 -0.20567036076580464 0.9153139171313606 167 122 83
-0.08769636341089396 -0.03995148810348439 0.9664624148587043 151 112 79
-0.08385949632337561 0.10708673947983108 0.9802000777291304 247 156 43
-0.04950255838813872 -0.09162971014316439 0.9300881108231114 139 101 71
0.022512036807106846 0.18493609885959825 0.9785071366963407 175 117 81
0.02920061967850148 -0.20896908294589062 0.9219177532240442 166 122 84
-0.0596236448242238 0.12772424306727245 0.9791189956500884 224 141 42
0.05369938284710202 0.23339100794384626 1.0047370924364123 72 116 34
0.02530599256236483 -0.19249646587765284 0.9127561317941417 170 125 87
-0.12438107596951566 -0.09872815830644041 0.9587546081795817 103 73 54
-0.038438435768257354 -0.09723665346842648 0.9215546771700004 160 119 81
-0.09344253079492026 0.2257490255729549 1.0049325670135145 110 106 50
0.007956059535197124 0.0555509104728649 0.9549925616913322 213 136 44
-0.2190333751214617 -0.061942209731144574 1.0327433929599086 190 115 85
-0.05821534078099451 -0.2055512423024445 0.9228615124300942 165 122 85
-0.13244824128870683 -0.1363154099368887 0.9477509335644368 149 107 74
-0.0009402731306794265 -0.07741788188182488 0.9187255867456249 145 106 73
0.0018078423938251678 -0.0874558667934331 0.9164604598941728 154 116 81
-0.07845616365850078 -0.03541543832677174 0.9470550135951965 139 103 73
0.053908420901174876 0.19204429300512033 1.0012747610202428 151 110 70
-0.04761021119210311 -0.09884978620052806 0.9290052737042549 142 102 68
5.394511040749365e-05 0.12265117112375473 0.9867140925208097 204 114 28
-0.03432178372117537 -0.287551749259218 0.9174549622632385 70 45 39
0.07578772851211518 -0.1094220152185512 0.9195019184897648 165 123 85
-0.0754995016461693 0.15720581987815296 0.9853263709776267 169 111 79
-0.014642374576872244 -0.1596424348877997 0.9068990513965811 160 119 83
0.012073793470713723 -0.05787203800569013 0.9226984334381899 160 119 81
0.005275227904474163 -0.09143242713403467 0.9149834858633501 154 115 80
-0.03764619364904485 0.02538078526010855 0.9419724457868281 253 243 235
-0.07174257297708331 0.1564029801383711 0.9841902658561482 177 115 84
-0.027801342974743945 0.06369660003987633 0.9668821257692424 197 118 34
-0.067268634350653 -0.18356019745298593 0.9220702677570992 141 99 66
-0.059219858016468396 -0.09039742540600268 0.9256187972895688 148 107 70
-0.04400477348748331 -0.07330520115886184 0.9302720855968062 160 119 82
-0.00912615114284756 -0.09372669923080967 0.9149743897466966 158 116 79
-0.03858114804537999 -0.18986066098616794 0.9123406063518946 146 107 74
-0.12117464749156309 -0.1583099654725206 0.944959470567909 172 133 89
-0.043205700022316045 -0.15718479750498704 0.9161288901183794 145 107 76
-0.0007773764939935431 -0.10374909804366078 0.9135681455267014 154 115 79
0.030566497477070163 0.07492891425989254 0.9630555110490804 228 143 41
-0.012944139001919314 -0.31006188346181757 0.9132727416066013 51 29 28
0.07845368491360186 -0.10872475513626559 0.9203255442062535 161 121 86
-0.02677383576091718 -0.2173189925046377 0.9182829374351 163 118 80
-0.020510282891411994 -0.10745641276638804 0.9146918649300954 160 119 81
0.03297106879743464 -0.1386533338893107 0.9257534339442897 96 65 48
-0.015289789477752558 -0.07764680468566751 0.9174282924812724 154 116 80
-0.011578235658061271 -0.12382363936294988 0.9095319848935733 160 120 81
-0.04982595225723956 -0.2288747565886114 0.9364052796739818 170 125 87
-0.004647128666647845 -0.04486077335510867 0.9250304900735616 133 95 66
0.01854585782459223 0.10321967902346917 0.9671986460374713 223 140 41
-0.018331378259384766 -0.11963351089248785 0.9113060391480711 161 118 78
-0.013760652178485416 -0.30092767944698057 0.9106505869217035 72 45 37
0.10051493322984738 -0.06527267511455298 0.9467414716540921 133 96 68
0.023412078500649223 -0.17273325613813348 0.905522015619466 153 109 73
-0.03628140083584164 -0.22652612942616682 0.927477745031944 158 113 78
0.03082360421670149 0.04592840970034494 0.9594172481249751 235 150 45
0.04980304298323158 0.3162143303691421 1.0082936839859395 21 13 18
-0.03538802619180783 0.1239739776953188 0.9973731513399543 154 83 19
0.015637395688331623 -0.06234800448744379 0.9222335874152887 158 119 83
0.039197752462949 0.2902244207291598 0.9986966869089909 14 10 12
-0.07351534914853756 0.001977197040855162 0.9593799371774137 165 143 122
0.06202861405515399 -0.03943133435937901 0.9829823618796865 133 106 68
0.03234680465637757 -0.0473174912548521 0.9299749152011938 138 101 72
0.016361589209683745 -0.1149435247074187 0.9133824360991538 143 103 73
-0.1847641411269747 -0.07456800197550809 0.9960573632113938 148 109 76
-0.032974012733275965 -0.09726536277762962 0.9198695285794035 156 114 76
0.01804993013129538 -0.17942512163621838 0.9103469576997518 146 106 74
0.08378428068214601 -0.10595915863598661 0.9231098199764157 162 121 83
-0.0750817984282175 -0.06491524095995387 0.9347148087781074 156 116 80
-0.04531903031386394 -0.20852979795435833 0.9199517393482122 164 121 85
-0.036116253462760345 0.012431220199743022 0.9404092782362647 246 230 217
0.010424361733716607 -0.006307516236006472 0.9362719852048839 159 116 76
0.049948174163516275 0.12299867997095877 0.981167725223954 250 159 42
0.019687004460598685 0.22290100943850794 0.9965151292360924 136 87 69
-0.07950860198652057 -0.14070560136667984 0.9286784202860353 139 99 69
0.0513927581247015 -0.07965906951659728 0.9628584736525763 99 65 47
-0.033058453806371665 0.10124341445898831 0.9866880028230166 167 92 22
-0.04704769302236388 -0.16105707569854386 0.9181601261314672 152 111 75
-0.07850736058867996 -0.1710294803942576 0.9214794779657371 137 98 68
0.19364459465878883 -0.028870666406912205 0.9887554285908083 158 84 62
0.03525718699754198 0.04347664672303906 0.9613916502634859 235 145 37
-0.008461024842237444 -0.04122284788654281 0.9252411509600074 133 95 66
-0.0036727312969582694 -0.14093689654260677 0.9071900556866728 158 119 82
-0.04566281194143668 -0.28850378954964084 0.9308631088693662 53 32 30
-0.012777134964807726 -0.16682784068639173 0.9062774402824955 159 118 82
0.013253550815548859 -0.04443067893123442 0.924903062632404 155 116 79
-0.06194522859142608 0.019417232914584196 0.9513919950126981 255 247 241
-0.13870674843894007 -0.0871128204858035 0.9660554500892669 105 73 53
0.03760372483645225 0.2780343715451839 1.000101918527463 120 73 62
0.014955056542274577 -0.291313580778586 0.9413164324796754 41 91 23
-0.057099650205900035 -0.039777260611038555 0.9319654417520856 163 119 83
0.15688582716494281 -0.03519111116399816 0.977149453400653 164 121 79
-0.029697409872181103 -0.27819700667741937 0.914247883664765 41 25 22
-0.06555172715549153 -0.09495536013432561 0.926763717960717 158 117 79
0.03713569772191118 0.02930478437046714 0.9598540163186826 227 191 160
-0.06672039422062566 -0.04255465987740046 0.9397730398556815 142 103 72
-0.03368275099162298 0.00943118275684101 0.9496676951202049 222 204 188
-0.054752533285497174 -0.0721664754079825 0.927841179204998 145 105 71
0.025251247199382276 -0.1813116455450379 0.9108106163311585 162 119 81
-0.0385948817483291 -0.08167226614472448 0.9227113725363816 158 119 82
0.001141995273412403 -0.048674455569736735 0.9249040743035938 154 113 78
-0.016892809072563714 -0.2560808094741965 0.9215595496899558 49 28 22
0.044205102799801596 0.17598508281330733 0.9829486931129989 172 110 77
0.12636528555269255 -0.06602303058929349 0.9541816143132332 165 123 85
0.03625246091994613 0.07882076127265082 0.9670338104051663 220 130 33
0.03635701207714047 0.043462768868106 0.9622317870568636 234 145 41
0.003999322172975398 0.1459500860535261 0.9996939916116546 153 95 78
-0.057578392536757575 -0.08115367533400397 0.9266970389546622 136 96 64
-0.06642209074808798 0.1884109473145734 0.9824669548225323 166 111 79
0.030367585909642437 0.06413240667541266 0.9614502247336825 232 144 40
-0.09044624044580649 0.08457063111807737 0.9966052573419941 162 78 20
0.0027881211026791943 -0.11964702654723056 0.9099410739582448 156 118 82
-0.01127256095832774 -0.07659979159616147 0.9179530660373486 154 115 81
-0.016445094704787357 -0.1732843630617887 0.9069878417566197 157 116 80
0.050096910516098256 0.04221283843220791 0.9796796602728444 242 145 35
-0.06531600652426023 0.3004970753868982 1.0085108579031745 4 95 3
-0.20957826149380027 -0.04777370738450661 1.029423346953055 167 114 86
-0.06726994452444884 -0.17992678560365388 0.9220832699992553 136 96 68
0.02724573586913006 -0.14285280659766958 0.9175489830273448 155 115 78
0.03589168968183728 0.25060134398235256 0.9965151016179419 158 106 77
-0.01267011540778547 -0.2520122088079319 0.9262731153358926 102 66 47
0.018846623230122508 -0.15586097145356026 0.9080887095329798 133 92 63
0.011569644273652457 0.1431408027281793 0.9845329938721948 164 111 84
-0.063409974194911 0.2287526452071578 1.0082660654322086 38 117 18
0.02873400252607412 0.25393476193847114 1.0001028931771057 135 103 69
-0.024449859155305863 -0.2553375864318504 0.923459488274127 57 33 30
-0.038342942874968367 -0.08580648172001246 0.9266217288092194 160 120 83
0.044724316318762794 0.1315898438886851 0.9779970007225977 238 145 37
-0.05081904461618118 0.023085073079628413 0.945025914024167 255 250 244
-0.060719138365075 -0.2207694989755946 0.9333550334916589 171 124 87
-0.07391454121592615 -0.10743167763156304 0.9275734250358052 161 121 83
-0.06845570697139582 -0.08538979645053096 0.9295687941495056 157 117 80
0.144077048526657 -0.06862929052704275 0.9717176729311477 153 110 75
0.06602406743969412 -0.11996406562733082 0.9182106717072535 141 101 72
0.005344114791321942 -0.11981138214418795 0.9099328395663884 159 120 81
0.062446116081688145 -0.18402854175974587 0.9241933207972801 164 122 86
-0.10698289062976662 -0.16955758015917474 0.9350673134798062 147 109 77
0.06288999308512722 -0.04980104227369936 0.9822613372744043 74 117 38
0.0038714774504407658 -0.32797215375723354 0.9393701849838989 0 124 0
-0.05021143797767722 -0.1469936998000732 0.9161860571525218 151 111 76
0.0065029738137238466 -0.05256027717751158 0.9231563600087903 156 115 79
-0.053928650706855145 -0.1628419172371654 0.9140154378429833 152 110 75
0.03991662716956219 0.14533746524287422 0.9815307015387272 163 107 78
-0.07417185962087355 -0.08563556181393182 0.931094776448973 158 118 82
0.11470154231233178 -0.09667396627197805 0.9546914941804204 170 127 87
-0.0976041582050689 -0.052610811456457615 0.9895364703001449 8 125 4
-0.030649768689572494 -0.19854262742665618 0.9157210243299105 156 117 80
-0.07094830949939564 0.20272333117857783 0.9868740445330988 152 104 71
0.1280095105069914 -0.03628965481485565 0.9748789255185794 112 94 59
0.022183476227040193 0.04724330491980119 0.955230022896118 222 139 40
-0.07958064594777362 -0.020768421451746958 0.9606003842231641 140 105 78
-0.03447491750823639 -0.010937914946564412 0.9333574276868009 158 117 79
0.03846526407828403 -0.052032961499544506 0.936947783871913 144 107 76
0.0113910270906487 -0.2653830625998981 0.9544225173713646 180 125 79
-0.020015839718368244 -0.22352959009917137 0.9206176201682984 160 116 81
-0.05299095149363785 -0.17367869048356263 0.9129955513353409 163 121 84
-0.08056531710155974 0.169662064695961 0.9859282629989367 181 115 80
-0.055285091848830105 -0.043486963475220936 0.9317840217450662 163 119 80
-0.09180339834523886 -0.07248840619911451 0.9770672955636305 122 83 59
-0.06556260078643808 -0.01117109730630887 0.9498230678792656 167 123 81
-0.13667735991362373 -0.09677962015006104 0.9556417231274095 127 92 66
-0.1129493263627705 -0.16835266587194944 0.9386269368350061 166 122 82
-0.03930501958427598 0.009430190476054902 0.9496180882265343 241 221 203
-0.029974384134635126 -0.09803434000200542 0.9181050180372499 154 112 76
0.0029170033484966903 -0.09224895319730035 0.914946591455361 155 115 80
-0.07811685709426806 0.21656593302363117 0.9916595732987112 150 99 67
0.04103182649086029 0.21197664046335707 0.983253808640628 147 99 70
0.025282028343513487 -0.18872036876564324 0.9119011485151314 166 123 83
-0.007109438588453197 -0.1830306622651115 0.9104151175734774 164 122 83
-0.047535080941194144 -0.22127705950469215 0.9277707526323442 169 124 88
0.20179300143636128 -0.008228635675770785 0.9896854713539767 149 128 80
-0.016113601979125196 0.053516035368113085 0.9647007072031148 116 57 13
0.002559047073613267 -0.1523307471803031 0.905532703931573 158 117 80
0.11648626301476056 -0.08019503047103782 0.9487986061548178 161 121 84
-0.07680142862026017 -0.1937409781805219 0.9272895224509904 162 118 81
0.04536320302695055 -0.16983376287180801 0.9110548090535937 162 121 83
0.02917537361133479 -0.1325402444324012 0.9213193001626176 143 105 73
-0.0387427503876964 -0.06078244925292395 0.9243862264575273 162 118 76
-0.021608882137491563 -0.14071658643323942 0.9153928595482779 160 118 81
-0.0438164207923763 0.1326669191406248 0.9877780668917685 206 119 29
-0.06656370088985294 0.14708190446716096 0.9829741874565285 182 126 91
0.02760694867790327 0.17543135788701428 0.9779629425031596 177 117 78
-0.009651347439453246 0.08734602322692042 0.983533873931473 146 72 20
-0.1305267239610278 -0.1139998142886265 0.9483137371618557 134 97 68
-0.06570640720260375 -0.13370187090073374 0.9197835931386481 157 117 81
0.03572249049077422 0.2117294114634133 0.9833873100994788 146 96 66
0.06473439108877965 -0.14256392816420974 0.9158757217376832 168 126 88
0.1973405616828468 -0.013826413426125683 0.9888210104397229 167 102 78
0.044229466341097444 0.23317623557198192 0.9927807739975295 147 97 70
-0.03249706006795988 -0.2856215936849194 0.9170657558806318 50 31 32
0.029316459141670487 -0.12827228422632156 0.915447837527978 141 103 71
-0.010179510209115766 -0.21381572921192568 0.9143786249366448 160 118 86
0.04921636147686155 -0.16692869047786554 0.9119664966734753 156 117 83
0.02055885101156233 -0.16992424123150526 0.9068707175955099 147 108 74
-0.03599396118242886 0.0762733546543128 0.9713739607480679 207 127 40
0.027893612518814465 0.044958712456917876 0.9573075191516127 230 147 44
0.16526421802024868 -0.02415611256979878 0.980439427733076 172 110 85
0.1305668944828937 -0.04490709350328043 0.9640511412806306 131 93 64
-0.0841838224995187 -0.18656039809813876 0.9279455186692004 160 115 77
-0.10630033098432744 0.308495999926698 1.0358244160196943 131 106 92
-0.0871824161252951 -0.05297987906961142 0.9608172107154614 145 104 72
-0.06264182959549934 0.11632730527126353 0.9754678121702411 236 148 43
-0.01557774133360562 -0.21529019071639652 0.9150440988371475 162 119 83
-0.02559295025741686 -0.09187265121648928 0.9165515973684938 158 117 79
0.021859226454617218 -0.2083803760095926 0.9193171824686506 165 123 87
0.07526820755239841 -0.14829538505871784 0.9290079152680433 174 130 90
0.008200459398292146 -0.23201274153945067 0.9426120228959446 154 107 75
-0.06397016053267139 0.15206883514081257 0.9835296034432812 175 116 87
-0.11185687396968143 -0.13223298340917064 0.9450146270428551 123 86 61
0.061919428173992964 0.29145800402490835 1.048409414032356 43 37 41
0.018082116829069995 -0.21199380181862762 0.9169491992641866 162 118 84
0.038324342306184936 0.2311865258558007 0.9918767766561569 154 103 69
0.03258216472174885 -0.18749603729357237 0.9147032481330521 146 103 70
0.012115606499463843 -0.05168704207927582 0.9241779193046546 158 120 86
-0.06064820315214225 -0.13269990916412808 0.9190827457037337 154 112 76
-0.01192730863140977 -0.2925181606156997 0.90935548591389 60 38 34
-0.0928994096981112 0.3062980969183136 1.0081832449909642 22 14 17
-0.01814947877434671 -0.1321155169441991 0.9104862933793632 159 119 81
-0.07362928490256802 -0.03475407183321565 0.9400313012534539 147 109 76
0.03498576196456162 -0.1320613852078713 0.9307548891866118 38 20 15
-0.01807942870437808 -0.2801482804213546 0.912845791345863 34 19 19
-0.04726716430518941 0.14261385044666738 0.989515363565516 168 114 87
0.04794017453869529 0.0814459811410671 0.9770566572672819 225 133 29
-0.06259661658379205 0.1858392361409986 0.984241294101559 167 115 79
0.08309507934308824 -0.09523721262587462 0.9259122093919895 148 112 81
-0.05706256886834601 0.0831603833535723 0.9676707288523342 232 148 48
0.12326916620275583 -0.03964811165331024 0.9728507180315322 112 80 59
0.016091654146086203 -0.0055151219628621585 0.9384365921470196 159 115 76
-0.06004990212666129 0.1693810453877688 0.9843051999831597 169 110 81
-0.06142069041297064 0.0599528232136604 0.9637978712929196 232 149 47
-0.13658817060899736 -0.11847646025832867 0.9464008062276331 135 98 69
-0.06924997648901042 0.039598045504241335 0.9672089580800762 233 147 43
0.04027029116329857 0.028472935997449454 0.9639684154939692 208 179 159
0.013140559282232173 0.029302897992523745 0.9476628169430341 249 238 232
-0.1054747733225342 -0.10535025964912441 1.0088028096796584 0 128 0
