ply
format ascii 1.0
element vertex 675
property float x
property float y
property float z
property uchar red
property uchar green
property uchar blue
end_header
-0.06056456867299048 0.1192155879378938 0.9990695514702249 229 144 42
-0.08611035715694705 0.17337526119508748 1.0499351608454128 133 84 56
-0.10082591956886973 -0.037541975501305995 0.9936578016911487 143 106 74
0.06152918470425223 -0.17508621019205722 0.9313551577898117 80 119 40
-0.09342709106545598 0.024071479640472408 1.000852497526415 248 233 222
0.014073878434232955 -0.11876167136883937 0.9302763910131779 154 114 79
-0.1077358582892921 -0.16828114089051746 0.9519778410673627 106 72 52
-0.0691194608907473 0.03731714257074341 0.9749984974037558 234 215 199
-0.10044026668473845 0.06919827555650282 1.0237236907154166 232 211 178
-0.2242158946173044 -0.05352591735691254 1.0551631709167022 11 125 6
-0.03854399278043704 -0.2911749006027863 0.945657379341815 57 34 29
-0.08288567194325987 -0.1362146128349969 0.9616741275830379 103 69 51
-0.17648387402115523 -0.12498088745028596 1.0076348973886085 169 123 82
-0.13368416668546454 0.33091095819326627 1.1052232650192721 64 45 48
-0.08954247320672007 -0.037975627317968205 1.059816046129316 139 117 73
-0.025339864932639893 -0.14720671575370292 0.9277494328201297 159 117 79
-0.021323902558134412 -0.13888759206397913 0.9279749040450552 160 119 83
-0.09982180983959026 -0.17957652616040343 0.9448943064091354 147 108 75
-0.25873385326656434 -0.053140341724557706 1.0702560782042505 0 130 0
-0.04032089683802165 -0.3078022553360527 0.9376034702018868 56 35 30
-0.03470775015653779 -0.17938760358372446 0.9277401990848363 158 117 81
-0.026126930941173257 -0.18534400151575006 0.9233402464472127 158 117 79
-0.09110557508013208 0.01346650860759002 0.9930582085253058 248 230 213
-0.08760123825897459 -0.12771595232159258 0.9699626745517301 112 76 54
-0.07898119122965563 0.1356349307843398 1.0035056145683696 230 141 35
-0.08012613745714225 -0.02247867410403564 0.9654761344858501 146 111 81
-0.20810391635316136 -0.0733195653825569 1.02546816960624 132 99 73
-0.10039872752830035 -0.056075031346403605 1.0428180388233486 155 116 83
-0.10442744297294095 0.335725691920211 1.0430467977004803 38 28 31
-0.02782185537184266 -0.14390882508108643 0.9294301064923775 160 117 80
-0.09678865818761538 0.24605631757540367 1.0229990397990154 158 104 70
-0.10561346962371806 -0.05984856272757192 1.026990761443513 127 92 66
-0.0847897469491139 -0.24243830331938823 0.9585189826376509 174 128 91
-0.12057496293409978 -0.21283489287753535 0.9729805554633886 171 126 90
-0.08283544170371467 -0.2295590491793204 0.9419822641761696 167 122 85
-0.044381900581907205 -0.2703566726557297 0.9773801995562029 189 121 78
-0.004685159362920678 -0.1977023973069215 0.9179774803635665 163 123 85
-0.09485510078794465 -0.08101493782354245 0.989845172974654 126 87 59
-0.08975360822127479 -0.017452908127392433 0.9793402207226181 166 121 81
-0.08943649616022756 -0.009396597623874516 1.0504952310662967 155 110 72
-0.10181272266426196 -0.06721323013785153 1.0334077470109042 138 98 66
0.03693412040572293 -0.2052311300537171 0.9241290383445493 92 125 45
-0.07415669057585 -0.04172222244364257 0.9519785891076603 141 102 71
-0.12316758053684465 -0.1939381925947447 0.9528107194835254 168 125 87
-0.13569884891421632 -0.1755721116631828 0.9810481710875154 142 97 67
-0.05278701188434313 -0.055202925893662894 0.9426324792159508 163 120 82
-0.011527272925290755 -0.2756153974729578 0.945429957800465 145 88 58
0.021583511307050943 0.2108770734550902 1.0064311259026788 167 113 79
0.03298814385910381 0.3407569428936137 1.024826986747559 17 9 13
-0.12478668394967878 0.33368920327581203 1.0797432669065314 73 52 58
-0.08656938829283416 -0.22176280955615518 0.9424443873837419 164 120 82
-0.04196815230246286 -0.26089171599803523 0.951603606349322 164 116 79
-0.09254390228067076 0.17206890302491504 1.0326966355834042 177 116 82
-0.0978126084175801 -0.030524371995625098 1.034128451639577 131 96 70
-0.09908041625181108 -0.07371331328843422 0.9933249872128418 131 91 62
-0.018272928809658067 -0.021492915267102414 0.9478726376166027 140 103 72
-0.027084741875595505 -0.10214529226653547 0.9332317186859895 157 117 81
-0.09070085889400696 0.06347569872204585 1.0536324841828668 243 179 101
-0.09628782290897568 -0.09971471514331778 0.9972309925681315 75 47 34
0.031041833509133424 0.15496060767085393 1.0030096690704409 245 153 41
-0.07603709319825154 0.1513662370007017 1.00590271928414 237 148 45
-0.10587705327815733 -0.059083997139526306 1.0244165539679493 134 97 68
-0.20914271520509944 -0.09589867351144703 1.04205723696953 176 130 88
-0.13373015877038202 -0.15670177689781162 0.9546819833850846 158 117 80
-0.09832328591560816 0.10441292023609867 1.0409378954071329 198 171 148
-0.10020935314116829 -0.2134705850504093 0.9435798769308363 161 120 82
-0.11187324075375082 0.35091373190694963 1.047448800003028 34 23 29
-0.0934240813587025 -0.1442421270724318 0.9656493826234888 109 74 53
-0.07940785619545176 -0.24509874736149032 0.953081882321821 166 122 83
-0.0025219380585810116 -0.3435683777727853 0.929024202446147 0 129 0
0.05302432758846439 -0.16263748722848986 0.9321180352031959 156 117 83
-0.09623478048038017 -0.004783915173669146 1.0149044162741028 161 114 75
-0.13933765451586444 0.3380823567320845 1.1197026871188338 90 67 75
-0.045123949453761907 -0.24609757408789346 0.9412879666294824 172 125 83
-0.07453685225291609 -0.035784780346208384 0.9566134797289715 142 105 74
-0.22541179747112972 -0.06427215990558778 1.0488037263538303 169 124 81
-0.08484345063389342 0.14104460100352084 1.065996518761624 250 237 232
-0.09362596068752889 0.05486089463077577 1.0403536029927796 238 149 41
5.163350028659459e-05 -0.12897509917578967 0.9262216840680539 156 116 80
-0.08877977737845141 -0.10372835217638332 0.9619507757385691 136 98 68
-0.08436806200413938 -0.022781884621944505 0.9699298268774036 145 111 83
-0.10097272895874768 -0.07947419418328971 1.004129271405746 118 81 57
-0.08996097891545607 -0.2238647826055497 0.9440008558908703 168 123 84
-0.11915156214208489 -0.1919459566768625 0.9486452104606515 151 111 77
0.10614405439755449 -0.11201824760822447 0.9466106387352039 43 124 22
0.050235672190663924 0.25122388846771526 1.0137915621979527 146 100 70
-0.0977521175372501 0.05714831823910882 1.0363839761207496 217 154 89
-0.09596379316659338 0.1419224178186252 1.0160049934309208 242 150 41
-0.0679105783667686 0.22993026980910847 1.0118894301020633 75 115 36
-0.05030333018775372 -0.05183455942813138 0.9418809890013164 163 118 79
-0.06205097325957576 0.0776979650804495 0.9877175683727624 226 142 44
-0.02416975398228878 -0.2847569315776721 0.9396690931618996 46 26 22
-0.07943063341379647 0.16490351838604378 1.0110439618726292 179 117 89
-0.018678528727542842 -0.1684148046659258 0.9233906229703697 161 120 83
-0.2508069322990705 -0.03315595944137875 1.073596086710357 143 95 69
-0.09159393872446984 0.14371801606750217 1.009956428066317 249 158 45
-0.016834841856333684 -0.07442503266170472 0.9361453831903511 145 106 73
-0.13997385636748327 -0.16899635610838723 0.9824723246414206 181 134 92
-0.09490841526670624 0.04044563394449249 1.0369084876895514 217 126 32
-0.17839437498977792 -0.12269713759040715 1.0139219052110964 170 125 87
-0.15626121061976173 -0.14425731413694076 0.9788780509023642 167 126 86
-0.13915269814615813 -0.16925953312246836 0.9664826013171344 176 131 90
-0.030607706874594163 -0.328724685749541 0.9281948289733661 60 36 31
-0.0077223300607451 -0.1370713203986481 0.924788804707313 156 116 81
0.039953236649679785 -0.05735598271294811 0.9476080442949221 144 108 78
-0.10091675516739076 0.2297093350487516 1.0227655479560585 161 107 78
-0.06523510707589751 0.06609493263502042 0.9865639318328292 229 146 47
-0.09618837295537694 -0.037638566696115545 1.0457900038531194 142 107 78
-0.1582235555401232 -0.12112632439688213 0.9712912424487733 167 125 84
-0.13232808455832643 -0.18069535213134505 0.9940178211409917 156 116 83
-0.033320178535084524 -0.16174171114431568 0.9290515509532006 163 120 80
-0.10068406213819504 0.31613177688635197 1.0872674216958786 6 42 5
-0.07494459388392755 -0.11163719338619393 0.9450677427007053 160 121 81
-0.13059474056635562 -0.17985982182487845 0.9601730532324178 173 128 87
-0.0956284151647163 0.03413630236845244 1.015981965105348 254 252 246
-0.004163565311745638 -0.1844605323952764 0.9205863397540395 159 118 80
-0.1030217460665795 -0.22931785341222638 0.9584066952859087 175 128 93
-0.09957554348035855 0.19540757141960402 1.033031893374984 176 101 76
-0.050640622436501886 -0.2397047890031295 0.9379663918947451 165 121 82
-0.09283333974002367 -0.07150006083910951 0.9703095228697601 128 90 63
-0.09078643306014116 0.28363448070443864 1.0353179072702592 141 87 62
-0.05549230595111906 -0.259405123852792 0.9667095348618683 161 112 79
-0.04811115410922245 -0.2876600607320628 0.9623209816763446 174 109 75
-0.049413221786908657 -0.29628979333809513 0.980358545381853 198 134 91
-0.0973448453947641 -0.16980442793195838 0.9505845739167406 123 86 61
-0.0962881466763582 0.12714358295897205 1.0291414975660929 166 89 23
0.019620519058127197 0.03848186209148647 0.9719241271105906 98 156 74
-0.09394703446442672 0.050284035428342554 1.021099171777773 246 151 39
-0.08424989798676885 0.284033640330403 1.0344041430771505 153 101 71
-0.03778538534908086 -0.15352482628115396 0.9317413184927408 160 118 82
-0.1649399086367569 -0.10580843467175695 0.98133273814625 149 110 78
-0.06043478176321679 -0.0983375692709703 0.9460874194944249 155 115 80
-0.20498170504585736 -0.0802604170166344 1.0144891667877565 169 128 90
0.014145730548648826 -0.13151413332112777 0.9273535920894498 159 120 84
0.09392710843145809 -0.12278329118335717 0.9391541732401933 149 120 76
-0.08466918472278127 -0.15015849635787987 0.9526826958663418 108 74 55
-0.08668048139636307 0.18163506391225198 1.0105268645188892 181 119 83
-0.03077083184807236 -0.3034507412398062 0.9348770602140521 41 24 24
0.023110510955219925 0.2278991027806485 1.0115919955611128 144 100 72
-0.14609221955109017 -0.16162329247345975 0.974556707192159 179 134 92
-0.11524645285366765 0.3272278497998531 1.0626050850708608 79 59 63
-0.05756628224359157 -0.3084960778723863 0.9663856679342988 222 135 93
-0.13087644307038454 -0.1834228348327769 0.9984667762021069 159 113 77
-0.0574875905205948 -0.1204845417444063 0.9411134409237558 154 114 78
-0.0444161483896363 -0.27355422775705723 0.9634902264445867 167 101 62
-0.09868213710488433 -0.07944049507890709 1.0000399612241824 121 83 56
-0.047724136122084745 -0.3363270479422657 0.9384049195469271 48 28 25
-0.21500311419569448 -0.059159605126725356 1.0485194237134134 141 102 73
-0.10303445274574204 -0.06980857592466413 1.0101477972563049 115 84 63
-0.12758200318021917 -0.19401603560135564 0.9759081600427587 170 124 83
0.007791641111395423 0.09906432535084497 0.9915410795437734 222 138 41
-0.026219164999043573 -0.16046085248168046 0.9261652766604469 161 121 83
-0.007367403217688354 -0.1774622432663755 0.9208069490656148 162 121 82
-0.03063044226803593 -0.2737648634638379 0.9504092131739139 140 82 52
-0.017156538365148834 -0.05833566972274722 0.9394227590797163 152 112 76
-0.08360815345372828 0.16398877111256663 1.0129471323679367 177 113 83
-0.13970024644594395 -0.16944677673673808 0.9743736620110048 177 134 94
-0.031585189321642004 -0.05042986987000371 0.9394874940175629 158 117 78
-0.04416593965871768 0.13305860521768503 1.005325355485078 192 114 32
-0.0948224665350758 -0.18343348833308845 0.944469510369436 158 119 81
-0.059320291887511936 -0.11644972665186853 0.9427170457303898 153 114 79
-0.03925770934007214 -0.2374247309038647 0.9339933154709692 167 123 83
-0.10281108910525386 -0.07036578807081505 1.0107934979566866 124 87 64
-0.14411525930083557 -0.16369566167857205 0.9813778510624517 178 134 94
-0.10243207609309855 0.07712205350056217 1.0298242158389315 174 145 124
-0.048430951685155724 -0.3369517924066549 0.9412570455975456 47 27 25
-0.07204389329057106 0.0830825067241138 0.9930188354200529 238 148 39
-0.03663897333280125 -0.17252267843834102 0.9294343066812862 158 117 81
-0.1333682116479481 -0.17576893503851995 0.9630019036956982 173 128 89
0.0025117351797407242 0.15046802398011802 1.018039362419404 183 101 33
-0.04122287959372682 -0.3167977696307888 0.9325140668424368 53 33 31
-0.1807238121451803 -0.10730059705226783 0.9951496452281436 170 127 85
-0.017843077747584597 -0.1151352770788164 0.9281420389891247 156 116 79
-0.048301266704378176 -0.311813839089079 0.9859339434740619 184 117 81
-0.09677862498374343 -0.07339944649316066 0.9916800887439963 132 93 62
-0.08796454100994358 -0.16257775908654024 0.9471045793982278 144 105 74
0.08097069550496834 -0.14488532614557703 0.9351714536908076 140 111 73
-0.09521404592759063 0.06247215345750467 1.013406073941306 202 110 30
-0.10700755971801629 -0.046746352881716156 1.016911497187932 128 93 68
-0.15048635504368782 -0.15225475510712175 0.969769005512083 178 132 89
-0.10179187116392711 -0.14000287199675002 0.9720643868750203 115 81 59
0.013676060010325066 0.15378476016974524 1.0108444051249637 214 129 41
-0.14430978060289332 -0.15731700073524696 0.9639985482624188 175 128 87
-0.03478464489495396 0.09093479493157758 0.9940059064714254 198 118 35
-0.09446190781018611 -0.008185953353747699 1.037025069909466 151 108 73
-0.051318116367728234 -0.33585950374937035 0.947416876739124 57 34 31
0.04159107523986738 -0.11320534395158463 0.935814569405383 129 89 60
0.10511217945794069 -0.10516736639894778 0.9460276601889341 71 121 37
-0.09505203048849116 0.31074177778398965 1.076872209186519 4 36 4
-0.148313606076519 -0.15506237977296708 0.9724933069800058 179 135 93
-0.12830652330395012 -0.19345151826677456 0.9839650907119802 166 123 85
-0.11717265660332479 -0.2178232296925755 0.9694325984196308 165 123 83
-0.18494683851704935 -0.07574343470140191 1.01254012110732 79 98 43
-0.0733553451797912 0.037630736094112084 0.9788646376787067 236 217 201
-0.08329871208831749 -0.2158781062690036 0.9419247790486945 161 115 81
-0.09436923379146732 0.14370144928152137 1.0355140995889796 238 144 38
-0.14961518907614085 -0.15535822693245743 0.9800831726669236 176 132 94
-0.09743133296620231 0.13423806997535856 1.022845088838035 221 130 32
-0.11951961102140403 0.33270166886893826 1.0686715962487499 56 39 47
-0.09344413075266667 -0.012827825589340128 0.996318339071955 163 117 75
-0.10378160910292099 0.35241174644775886 1.035352503965044 34 23 27
-0.10561395303312947 0.3265177366367632 1.0401525022975062 55 40 42
-0.08816437469784028 -0.16002056434804915 0.9471631080900151 133 93 65
-0.08813165186686407 0.16076735155714772 1.0137798101608522 174 112 78
-0.1108948829995059 0.32734024371498516 1.0538271580211398 65 49 57
-0.0780567570667564 -0.04127434088115546 0.9561573729260578 154 117 82
0.031466486811574025 0.3342646391493571 1.0336928382375212 35 25 29
-0.10231803527014673 0.3528282339852462 1.03490786707553 29 20 25
-0.10546071560728541 0.3200386266375138 1.0931022983803498 6 91 5
-0.0915191545835529 -0.23391063725049588 0.9517313659549395 179 134 91
-0.04086779740457472 -0.34616302423711787 0.935939084797085 18 11 12
0.04727620862572828 -0.1547826268978025 0.9306418879367797 138 99 69
-0.09052461659538467 -0.07440975123166765 0.9648918204384285 144 105 72
-0.051862514081803535 -0.30270399434964096 0.9736923340833061 180 118 79
-0.048533270980600264 -0.33794247386628123 0.9412943977072377 43 25 24
0.06102251652309532 -0.13003146080034217 0.9350289139675784 129 89 65
-0.0941554693132593 0.11261256359717992 1.051561119262384 138 88 55
-0.07244181432360562 0.07465503764170385 0.9918478874843489 238 150 44
0.017668112365374244 0.03899381862885609 0.9718623389130988 200 176 140
-0.08638567015204787 -0.23932488537568197 0.9565421021154212 174 128 89
-0.09406847992271047 0.03927846935064128 1.0462912811791734 218 129 33
-0.08393176883000585 -0.033792327138985244 0.9659922996947307 147 112 81
-0.07863221044130463 0.14110835130335253 1.0053750968147541 233 144 37
-0.08404083496502548 -0.14400503010017257 0.9511057537540769 90 58 42
-0.012462379639828484 -0.12267559427698585 0.9267076982766008 157 118 83
-0.08586512042804671 -0.10224695643353938 0.9519539040352967 157 114 77
-0.03928749201284575 -0.0859941490223167 0.9358821715393674 155 114 77
-0.1382700613556931 -0.16535298248774588 0.9615829421029972 178 131 95
-0.020715771901090627 -0.13226436838978628 0.9274315380256596 161 117 77
0.08752493178905267 -0.1343699293105645 0.937319322213735 147 118 74
-0.08183402966004882 0.16318776167784999 1.0579505180457067 76 110 33
-0.08566499771721474 0.03743894399868836 0.994608425065271 202 141 95
-0.10191311973184962 0.07800143042364206 1.0240909517431034 236 216 180
-0.11701889872164112 -0.19678073760150713 0.9483288522176243 163 119 79
-0.2187431203370655 -0.08420516709684242 1.0381145617265752 132 89 61
-0.09714744248549019 -0.013692007253182932 1.02198795008407 148 106 70
-0.18015931233841045 -0.10535812430970164 0.9928011517254637 174 130 88
-0.09577474618674384 -0.16131359369860318 0.9564332156564859 109 72 54
-0.08291074516010682 0.07756238171406932 1.0653648810472467 245 156 48
-0.15662595489244766 -0.14604808873561656 0.9865861452368835 176 130 91
-0.09242957244837331 -0.1186007586099333 0.9764503500550741 83 50 33
-0.08959069450012262 -0.0239864729704248 0.9778407825436586 144 107 78
-0.14008566826974309 0.34371177028312183 1.1067054303945247 178 156 137
-0.01596423409511023 -0.3485387474241821 0.9281952603414995 19 19 11
-0.0946667861234868 0.18150964356532143 1.025728875826663 183 121 88
-0.1499777683692391 -0.15388445968726372 0.9759769012935929 176 130 88
-0.050947571999997214 -0.31911672628650345 0.9465205039266106 58 35 33
-0.06218683056378973 -0.09330884566620062 0.9456754669534003 151 111 77
-0.08082294858559493 -0.20424608895557061 0.9381636773456333 144 104 71
-0.1364323080761264 -0.1743376799366229 0.9687767630621014 171 128 86
-0.094766760977162 0.03490711954101096 1.00965175326138 255 255 252
-0.07950788512816635 0.07307258862084481 0.9943277342188243 242 152 45
-0.09777555030413568 -0.22366631564555417 0.9475393263429571 175 129 90
-0.11789204949886685 -0.1942560770277687 0.9483966014499556 154 115 81
-0.09941403438426442 0.23080357402275145 1.020401519789684 159 109 76
-0.0719504171107344 -0.23884617174195052 0.9435551981308968 171 125 85
-0.25909730285276195 -0.05937392210821241 1.069833101608443 180 104 81
-0.06767818071993491 -0.05174058921482527 0.9521716732914206 140 101 71
-0.09500941902117649 0.05910463946127171 1.0140415504831837 243 151 39
-0.028206901495589163 0.0772143159867991 0.9906104388400273 169 95 27
-0.032835943448047 -0.19773357930520594 0.9259083695140317 158 117 79
-0.0776899294996541 -0.16087753593351037 0.9376722660692854 119 79 53
-0.2460359718838748 -0.07998134701141323 1.0716024366030534 172 79 64
-0.1611779966077891 -0.11527578224527375 0.9737695752551377 153 113 79
-0.04722915038156033 -0.060187439095543034 0.9407766942717595 159 118 80
-0.0988972590422748 0.08139594674484882 1.0119922482434682 159 80 16
-0.0818457970842107 0.09151402317637196 1.0694435671740312 235 144 37
-0.09724374846382061 0.06366809745244624 1.0161878636302994 201 160 115
0.013660132812713183 0.006719687926699586 0.9575337313155122 63 153 55
-0.03773587797392873 -0.26773799665789355 0.9537080112455353 169 121 80
-0.07926880498954843 -5.951873471924234e-05 0.972522294178929 170 126 87
-0.034983754125326255 -0.2055655395699519 0.9273788441466215 160 119 81
-0.03700444663914751 -0.3266932379691587 0.9294320638448665 61 40 37
-0.08916538929383555 0.02475019397679534 0.9921994932095853 248 235 227
-0.09529132845540912 0.09958995538688718 1.049649676449644 213 122 33
-0.03028997954681783 0.0028323886867986105 0.956891934146526 165 122 86
-0.10128764567675598 0.06847579734993539 1.0254151622933247 219 196 168
0.19037978352013782 -0.038676416265463476 1.0003477152928315 183 114 87
0.006360394686276996 -0.23194978966193835 0.9294460996768109 163 121 85
-0.087289275995025 0.19626765915954617 1.0098518976794677 175 108 76
0.023543415715882098 -0.22566423086688173 0.9281121468788559 168 124 86
-0.03717083592600422 -0.2261170244162559 0.9265933113470768 158 116 80
-0.09624768939155108 -0.006011673501727346 1.019164417150133 153 110 73
-0.04218359103619933 -0.34356288419539427 0.9355958247398384 22 12 13
-0.14246695102374546 -0.16195719428486688 0.9674593754925674 174 129 85
-0.23520010879035705 -0.0836411608295801 1.0736590567735838 176 89 73
0.022390108513812637 0.35937436425882435 1.0303006064312679 7 96 7
-0.09424201379239489 0.19669747783481553 1.0157130094621847 175 109 78
-0.2147343000777709 -0.0806208266313999 1.0269141542609144 174 131 90
-0.027891490687150137 0.08735296856316323 0.9955333283537854 183 106 30
-0.050457976308322904 -0.34128845613985864 0.9461864383025742 32 17 18
0.023233819130620028 0.20104314964724762 1.0382230371303123 150 112 76
-0.0899061660184979 -0.11018940503640134 0.9699817151136144 117 80 55
-0.1546462025410846 -0.14825984700867847 0.9754596440044326 172 129 92
-0.023009291365210304 -0.09769762216059337 0.932634317577478 162 120 83
-0.03802800107245882 -0.34075474118859655 0.9333266036987555 33 16 17
-0.047305450994974255 -0.26034546977788325 0.9555783561923566 164 115 78
-0.050140375296128324 -0.3217739650488466 0.9451888254657163 46 26 25
-0.13520791670773355 0.3327988269557537 1.109751896849186 65 48 51
0.02043503286046013 0.004885402660157818 0.9577522765210926 6 127 3
-0.17529294066410925 -0.09840308566190949 0.9907505755018113 139 101 72
-0.05271424390764125 -0.33869134475692997 0.9645672575942192 43 24 23
-0.1833570089269081 -0.09388772350450938 0.9933593399910238 137 102 74
-0.09541174247940773 0.06668776919581973 1.0466232454825084 242 149 42
-0.01974563477143617 -0.1712502779757181 0.9226129319585046 159 119 82
-0.0006362097405743721 -0.1484626736164657 0.9238468828723788 158 118 83
-0.17612595777874607 -0.12021966158442521 0.9914946631970487 172 128 90
-0.06039002275280136 -0.021191453381791597 0.9537050466823649 149 112 79
-0.1012905644463461 -0.026169743145192832 1.0064766266876504 121 84 61
-0.12724079896248874 -0.19554371405564577 0.9696393274475259 170 124 86
-0.09749234608486758 -0.2333129767931731 0.9573955812712434 175 126 89
-0.03660649255439422 -0.12875131926372113 0.9322273567988045 158 115 80
-0.04667593540934236 -0.15470588732517435 0.9343204673494663 151 110 76
0.10106294437691296 -0.1204887378736867 0.9425390258142231 79 123 43
-0.03609686163776304 -0.14426101825037851 0.9314609758960779 160 117 81
-0.13879733609473008 0.33741589939130345 1.122761216615235 11 20 12
0.04981810069670845 0.34411782238168737 1.0203308307836265 0 130 0
-0.002922742605665472 -0.24720018805644056 0.9404070948422265 158 115 80
-0.08564322283703653 0.11036608754674271 1.0605183101081814 240 146 40
-0.08363857154843139 0.10256937974641483 1.066821146445557 235 143 38
-0.09655218140911115 0.11263684347717198 1.0308223618987187 225 135 37
-0.08945961839604659 0.14511620430146174 1.0525829333187673 73 71 29
-0.24599172561187937 -0.050903745411217505 1.0644722993702962 126 71 53
-0.1407402495183667 0.34751432896984663 1.0933665159839534 149 119 114
-0.0347536437045055 0.09201222355727863 0.9941525843668243 187 109 32
-0.1741833984094712 -0.10070113255049876 0.9878035285406689 149 110 77
-0.08270065639937305 0.0026147934963625797 0.9792182225067447 218 201 185
-0.19389024530254262 -0.10289130429699714 1.0099100329326645 172 128 90
-0.04366414939046283 -0.3166418919652935 0.9349520501026737 54 33 31
-0.14072546240117928 -0.16664370452723118 0.9681124630060974 180 136 93
-0.11875523438136153 -0.2094856379012667 0.9564185105266398 168 125 86
-0.046638464122005764 -0.33413917963529893 0.9403037501117638 57 33 31
0.0018296419013509183 -0.16401631057957436 0.9208051618014294 160 119 81
-0.005831147599875968 -0.19065207000579243 0.9188037783236285 158 117 80
-0.01039547070526086 -0.15344012743714447 0.9218551638965923 159 118 82
-0.14540297962007237 -0.16049962595134756 0.98332472255245 178 133 92
-0.07136710535994405 0.1167071935455391 1.081832455826328 11 134 13
-0.056181879737909717 -0.24026047469088305 0.940427846674544 171 124 86
0.04194142967361962 0.3106324953401641 1.0288894494275909 143 88 75
0.06871873500467694 -0.13422946323154106 0.9365390577159561 147 106 73
-0.021226997217875816 -0.3609230616119357 0.9368152180681044 1 118 1
-0.17632301409992196 -0.12423538518337054 1.0171719974464153 176 128 88
0.05186971104441636 0.30681496852950213 1.0646002209420626 9 5 8
-0.1013069241526075 -0.027703501182972844 1.0064191599397005 129 94 67
-0.0577860966481642 -0.3137682781077419 0.9662027943318792 183 91 70
0.05423407530623018 0.14676629891902496 0.9998785552448733 225 150 40
-0.09836362248239022 -0.030149811376353145 1.0305406100470589 131 94 66
-0.04144901945797242 -0.2578409137684831 0.990357907138196 87 126 41
-0.043907042130940495 -0.33335470655666644 0.9364188841215367 61 37 32
-0.16783997484402816 -0.1361163230514459 0.9932946220749387 173 126 87
-0.09361095822139305 -0.08938186467197243 0.9743098865112252 127 90 63
0.020481434119673885 -0.1355552018561976 0.9278483665732722 144 106 72
0.027618655374328366 0.21595965038610535 1.002456424765887 166 114 79
-0.018024043398024586 -0.36039308668940434 0.9357710857497039 0 131 0
0.18063499440747305 -0.02018522414622832 1.002931350979622 140 90 67
-0.25335608507951385 -0.07676487913379415 1.073936897812871 126 72 46
-0.09623016692031029 0.014543551048781066 1.0216169590033282 246 230 220
-0.1287357800929944 -0.17678898104704377 0.9551536298207511 159 115 79
-0.1780520073818977 -0.11605452631719804 0.9911753482809967 177 132 87
-0.0862718665437495 -0.0008898046507484666 0.9812354201939302 167 122 81
-0.06918169903261438 -0.0727839754796242 0.9486709066298962 148 109 76
-0.07502396940718888 0.07508465662630295 0.9937801116041478 240 151 44
-0.1055660829125426 -0.05799777978067904 1.015083938368574 107 78 58
-0.07810829503647788 0.34243992103426074 1.0260553422010623 5 93 4
-0.04368604599950221 -0.34256118191562107 0.9376143271419628 20 12 14
-0.08955321051990092 0.17190671555533255 1.016948996496145 185 123 84
-0.04197656574638562 -0.28333830342079014 0.9876883378222754 188 123 81
-0.047188611746347434 -0.2889854707440756 0.9783421819912279 195 123 88
-0.09530774013081088 3.5669359240740874e-05 1.0241456972752705 226 207 189
-0.0486576868801841 -0.3082595376071814 0.9864812663933111 190 122 79
-0.09372495997132112 -0.19483695772247464 0.9414255637304637 166 123 83
-0.10816056570257052 0.32204310965665567 1.0982280937094784 11 71 9
-0.07769216354883766 -0.24625242406662223 0.9540980128671445 169 125 87
-0.05984637696154219 -0.02352160190947017 0.9525980077953281 149 111 78
-0.04387800907660196 -0.31270043256758173 0.9380106678842175 53 32 29
-0.08316365182251244 0.09920412644391251 1.0653378792506203 226 136 35
-0.10371447150391387 -0.04993274783361386 1.0354128917237668 137 101 74
-0.06897228232741309 -0.07666801103507243 0.9482282217705925 151 112 78
-0.24703263150582921 -0.04977369155083588 1.065661423452451 117 110 61
-0.10315696973571076 0.3126234682772515 1.0556808359852974 65 33 33
-0.24497342244754036 -0.06820429011380162 1.059921295996542 202 112 91
-0.19247411614605014 -0.10188553129050892 1.0027532208324275 179 135 92
-0.08277730934152826 0.0739546773254528 0.9964658263829897 239 150 42
-0.052143602105331734 -0.3340146672894331 0.9679393133212943 66 41 35
-0.09189276088881433 -0.11045939522210477 0.9660165028551427 112 75 53
-0.09219511395459523 0.026443123421746626 0.996148923600282 247 230 218
-0.09347002635962606 0.03616690561022734 1.0059264935407264 191 137 107
-0.1367080186213031 -0.16095187168781008 0.9572309102275264 100 61 45
-0.06800577476235281 0.18843421566301088 1.0077783873323969 164 115 77
-0.06287001003950028 -0.08873654983245868 0.9463890256232836 144 105 73
-0.15688515530073385 -0.1348670768066726 0.9670265659038626 169 126 87
-0.01226705066756785 -0.17075349472007523 0.9214183873223398 160 120 82
-0.12403418720700295 -0.20112104805647327 0.9687923040723327 169 125 85
-0.09222797515268574 0.036894538344227436 1.0036737036367906 191 133 88
-0.07025231442007147 -0.2384328414097031 0.9421261352911252 169 124 86
-0.10072211209489411 -0.023370589945192127 1.0178686417991947 148 107 72
-0.089330535526111 0.14317782465541828 1.0543151487718 231 200 188
0.011281177215515659 -0.06731227167468032 0.9398178746070476 159 117 79
0.207713513621352 -0.026970823991108228 1.0031757346733134 162 110 77
0.022352245450502493 -0.04488963582790258 0.9456776750317175 158 118 81
-0.19893467791273012 -0.08253277105685043 1.007311331642973 154 116 83
-0.10034578466784594 0.31809382055780017 1.0414186428808005 44 25 21
-0.018047566743898517 -0.06269277455170702 0.9384745273808064 157 116 78
-0.02138754553032823 -0.20101917365186756 0.9258385614977308 160 118 82
-0.0689964835053841 -0.019273224425626425 0.9578504405501503 112 75 54
-0.02683787016389503 -0.16441903360806517 0.9267614628364899 160 118 79
-0.2496459613142829 -0.057949305872850514 1.063668608330549 145 86 69
-0.07108444419604519 -0.19543312559234377 0.9338129173995483 138 96 65
-0.029633328278251506 -0.2590549027380381 0.9482915389788642 158 109 72
-0.09448437493857269 -0.01734803697592776 0.9921621252546303 164 119 78
-0.012147420995649742 -0.14041297553858256 0.92361302251081 159 119 83
-0.10339972892672303 0.22187809645799578 1.031402289041557 162 108 73
-0.018610560977071977 -0.11016324614673553 0.928743110612549 161 119 81
-0.10233359500448402 -0.08509743473323088 1.0101942208063723 115 81 58
-0.15142468834403364 -0.14029299867448436 0.9615215302441197 156 113 76
-0.07710720828321685 0.065998121702442 0.9913919860011793 236 149 44
0.052135985546119 0.30033744881502167 1.0614027020733257 7 68 5
-0.13310366367033152 0.3315790646419211 1.1102048455029914 58 42 43
-0.0985486649700718 0.10352667286974626 1.0237602008127529 188 94 20
0.003324878929338404 0.15210706425125878 1.0163449538112062 137 90 60
-0.09757263808094242 -0.016695172151692028 1.0205582639482593 146 105 70
-0.05035880826934577 -0.20874948466611778 0.9274222318604449 162 121 84
-0.09424579590342091 0.05986965137670646 1.012546932272746 235 138 34
-0.08785297638858884 0.005191249782744722 0.9913032732990056 244 230 224
0.04923264898285672 0.09971781482370877 0.9962596141710245 215 141 36
-0.14572044584237073 -0.16251650939382525 0.9956081927573288 128 88 66
-0.09366350007483748 -0.15444607051986914 0.9656927316648397 89 57 42
-0.07056239633660355 -0.22391803136028374 0.934478237048527 158 118 83
-0.030911306757403785 -0.20081132064371413 0.9253700538759183 160 118 82
-0.0773743718170328 0.06141771588016034 1.0713169566722969 120 140 25
-0.05016593644591662 -0.3323021408872059 0.945192702861456 58 36 33
-0.19350036924437722 -0.10199371153375004 1.0104019782175737 175 129 87
-0.003687988170874561 -0.3146540099607807 0.9306741175597844 42 37 22
-0.08858311472305211 -0.031092636363104335 0.9710638938865184 151 114 82
-0.021577824006172933 -0.27882477442279596 1.00998962746468 171 104 68
-0.1010758935547219 -0.03643783392821501 1.0209730584615124 136 99 70
0.027546208210282374 -0.21636766330193288 0.9243063750294637 157 117 82
0.04748158471973171 0.29291032462011973 1.052181179024092 83 127 43
-0.08425026942852505 0.10775101666186201 1.0608248294459581 239 147 38
-0.12990542190902132 -0.18488868776465991 0.9663496647172002 182 134 91
-0.012856305381183666 -0.354243613559794 0.931409391298027 0 134 0
-0.03131346715329667 0.10423108040356802 1.0000994921948534 194 115 34
-0.028394707928342453 -0.07137257247890187 0.9362841822935783 160 119 82
-0.07127182144579382 0.12704899962081634 1.079661714189641 247 235 229
-0.13379180833892623 -0.1809964524702345 0.9720658676207938 151 107 75
-0.2621695000544766 -0.065728381239466 1.0705959535202831 152 82 64
-0.04662219789593424 -0.22129774897965637 0.9300624069715265 165 124 88
0.018206764701144212 -0.025091260918247527 0.9490165200314274 75 120 39
-0.09673479309747583 0.006592210303143233 1.0259097552280654 243 226 215
-0.0987030109310761 -0.14268607356098695 0.9732590544254961 131 93 66
-0.07457114338653767 -0.23587664374405684 0.9421111630041387 161 118 84
-0.047456314714444246 -0.2323464120264733 0.9331312591947772 169 124 84
-0.09398429892485295 0.17696696006420792 1.0327088505761228 176 112 82
-0.074452510622361 -0.047662573892230276 0.9509335750202764 147 107 73
-0.04823095434572501 -0.3367122943275078 0.9765715487701389 70 44 38
-0.0696818914223483 -0.2128778991736412 0.9331616196229192 149 108 74
-0.09576223727124729 0.14495646276961457 1.0285151828202899 166 100 50
-0.1305204085349912 -0.18198386088262433 1.0021085494444506 181 128 93
-0.09802530958294263 0.26535251819553113 1.0279846311615066 157 110 76
-0.05543349707197969 -0.3068609049915831 0.9688536714874307 166 98 74
-0.2650766727714779 -0.06470881535795517 1.0734180109993052 143 82 60
-0.09001596635179505 0.16612673362651256 1.0417949850332382 173 107 76
-0.21070949030273584 -0.06162907032651632 1.0447390515857438 121 97 60
-0.09364963512139114 -0.15412127363438505 0.9659481509991574 127 88 59
-0.09620656836874933 0.2108777979057876 1.015328063949927 168 105 72
-0.014115735674919002 -0.20049127794155497 0.9235924827332587 159 119 82
-0.08688425494713078 0.057839345875418606 0.9977331468063241 243 152 39
-0.13044771940169742 -0.17246509789035042 0.9551595818640872 124 84 60
0.03598310158275261 0.3122757669843665 1.0350157471550714 96 59 50
-0.014339574993625988 -0.3298284152964376 0.9255161387201213 62 39 33
-0.2543000536315836 -0.07706139531397775 1.078426229840964 165 76 60
-0.0009935509964308319 -0.1674743525853251 0.9220842277399389 159 119 84
-0.02580079269788729 0.06646179843835583 0.9867605274894198 191 110 30
-0.12877995748175192 -0.19371358523073476 0.9883827566437188 171 128 88
0.042462487287577545 0.2959836260793576 1.0254907869744685 186 119 94
-0.03606266353782412 -0.18681543112022037 0.9257456561716126 158 119 84
0.06263556598021353 -0.1722581341738785 0.932765847815936 163 115 83
-0.021299983326591287 -0.27188918576011534 0.9467642220748139 149 87 54
-0.04482271115513905 -0.27217170353140985 0.9719830412781204 174 107 68
-0.08447345482541055 0.2806394340463823 1.0325255624116538 153 104 71
0.0046025754636600255 0.1458780539354731 1.0111234852366393 212 124 33
-0.09295459702704598 0.012788552292284726 1.0031217540930029 254 242 231
-0.0313242609438172 -0.3612357711348315 0.9911685618644208 6 41 5
-0.028236915361238825 -0.03405172812131968 0.9412250114008544 148 111 80
-0.07717661462505777 0.03750386239888762 0.9820888571222878 225 201 185
-0.015876300045114897 -0.27267522166754177 1.004950202263702 187 119 79
-0.0924264769570946 -0.017891814182693776 1.0392650417655478 151 109 73
-0.07227682525563851 0.08883773962052936 0.993099610068413 234 148 44
-0.020624433931874377 -0.0453980099857261 0.9401307101294117 144 104 71
0.02196458472117428 0.15432724393507252 1.0062409288987528 176 105 45
-0.0451317347900357 0.1288158383793777 1.0039740293878159 185 107 32
-0.040425240930629026 -0.2976538514764325 0.9423101162738995 59 35 30
-0.07924940156815868 0.07233940391828812 1.0722666912141703 3 127 0
-0.07686284918318714 -0.2199669793951294 0.9396112188191358 154 109 73
-0.05287684525127623 -0.23641206681625646 0.9351335083941936 162 120 84
-0.12276425527858957 -0.20594429194916025 0.9713019078473746 172 126 86
-0.08817723341895597 -0.09685991503563668 0.969703545138327 116 80 57
-0.04012909928613555 -0.3088197336418981 0.9365971763584158 51 31 31
-0.1046396927798568 0.3134290881798568 1.0670140844457883 8 3 8
-0.011751493221848775 -0.11954827805662069 0.9272145212761901 155 116 82
-0.07992953018480796 -0.05333730874713189 0.955307715919536 160 120 82
-0.055006634359395776 -0.2528219230790179 0.9503808049394442 170 125 89
-0.2444887438082488 -0.08186927692484977 1.0702504005623905 172 77 64
0.017209216096607076 0.20909366621172557 1.0207916368258794 149 99 75
-0.16860395722195157 -0.13339500593161052 0.994091164171562 173 126 85
0.03774577783346907 0.36088269658268296 1.0179000454685165 0 126 0
-0.10203606113074115 0.22010991646437883 1.0249049686589562 167 110 78
-0.01939094435142697 -0.06863150350749125 0.9371765579163256 154 115 79
-0.09753965067118471 0.057127168985289606 1.0233767327748218 239 143 36
-0.12962407573497003 -0.1784391737257149 0.9581657704908885 164 122 84
-0.05790992062611316 -0.31705645876463573 0.9640137619114475 74 35 28
0.05661769723919217 0.329524424058406 1.0859249135501992 40 28 31
-0.1165046012418149 0.3471982061376218 1.0615546499759048 25 18 32
-0.03337423122737577 -0.297159208989586 1.0052048519818169 57 129 26
-0.0902865257484144 0.34256856417228554 1.0320539310749537 48 33 37
-0.2666378544260775 -0.06419012248103768 1.0749728168282489 9 127 5
-0.03293457148941158 -0.16871983501230578 0.9290407048358886 160 118 83
-0.14308122097938064 -0.16692097941697195 0.9895945120485791 164 119 84
-0.10057889749602597 -0.024798980160412022 1.0235428727111322 142 101 67
-0.00018870555593419262 -0.21032000508602938 0.9202625383720371 165 123 84
-0.032730653480079766 0.09873766716318085 0.9979015488398407 197 116 32
0.00844055502290612 0.1414782058852856 1.0093510934711325 214 127 37
0.04386621096227381 0.3054290188909884 1.0284459444326677 90 50 46
-0.02457608321678437 -0.258803877224591 0.9477392976141977 151 105 71
-0.09079294604417473 0.02440924376825349 0.9944208964863688 247 232 221
-0.009486532171727676 -0.18514377173974692 0.9218544738000901 160 119 81
-0.10272548132427088 -0.2049288082976143 0.9417879958118763 157 117 80
-0.07778926304790384 0.1337985971941853 1.0771917078501179 255 246 246
0.01679188980733762 0.20008092513357187 1.0110361817836266 160 105 75
-0.1801630656706205 -0.11631522517141633 0.9960592578683445 176 132 91
-0.051964973208657964 -0.32740593703699894 0.9461782777751461 45 29 28
-0.09511841118864459 0.03457588980049318 1.013219516066728 255 254 246
-0.10552240076171557 -0.05943924743798629 1.0258608604782797 131 95 68
-0.07240304530388232 0.11226436202692365 1.0827983445660938 198 118 34
-0.11547653321723957 0.3231938770450605 1.0694214901689072 33 22 26
-0.10198590366769558 0.09487142125796276 1.0199004584646973 138 92 64
0.046527863303639866 0.07565687436950251 0.989247222047258 63 131 12
-0.10286389050281065 -0.04637906934118676 1.0032612415387825 133 95 66
-0.09871642597286001 0.19343123300754422 1.0302282980359896 179 112 78
-0.0152721686596165 -0.29860722381917226 0.9332686039573257 39 23 20
-0.09695198372088745 0.030983332998452497 1.0388151297258008 255 254 248
-0.2418549816440215 -0.05150817958925688 1.0618960701929039 153 96 73
-0.0346278645722716 -0.03184569228140922 0.9410153597938778 144 107 77
-0.02271123855990309 -0.11071719237135809 0.9306752610609648 162 120 80
0.01325041478451001 -0.022580318438528268 0.9484756258801388 75 113 39
-0.17785088161617765 -0.1131021928572984 0.9908096156607036 174 132 89
0.05421534134084346 -0.18105695023162519 0.929969778273878 145 114 75
-0.11527373246922992 -0.2020008852634247 0.9483490368175103 167 122 82
-0.09486854557011877 -0.033671137384855214 0.9774551868753093 151 113 79
-0.10267663614274966 -0.029758920708500367 1.0155971723798716 137 99 69
-0.15314442167251713 -0.1506899629962544 0.9756993335205129 177 131 89
0.05660509326081895 -0.17623592631187435 0.9315011596228403 161 113 83
0.0707508207494096 -0.16585220836108447 0.9336591271108069 163 120 86
-0.021458290833291444 -0.18413089671332367 0.9221103072706552 158 117 80
-0.025300185583553868 -0.32686602906929574 1.0040660696462242 86 115 38
-0.09036299977321041 0.03621370461146961 1.0017130106850938 249 241 232
-0.03952149537165259 -0.18119885040486275 0.9310155882572638 156 115 79
-0.011897679617380506 -0.1567560786515594 0.9221205628643384 160 118 78
-0.09844673511531399 0.31502222954042886 1.087363501040255 1 118 1
-0.09591902358211465 0.013044655446376407 1.013084368480798 252 239 230
-0.10275116584350921 -0.04908143494815793 1.0027386997263734 133 95 68
-0.10422113568957682 -0.054961395743007034 1.0013477890774365 141 100 69
-0.06782368685377274 -0.23431550490279682 0.9404400098559338 169 124 86
-0.0536295166228212 -0.31058291717906317 0.9476679543359163 73 47 40
-0.04572081987437452 -0.2852992962225679 0.9831554956422888 191 124 82
-0.09694071012561156 0.013266663616375794 1.0255589621966772 254 241 230
-0.10707471856314696 -0.0493356063284225 1.014956606316778 57 39 31
-0.09082042021098047 0.1589147366654473 1.0287282771575001 178 120 87
-0.018764373963475828 -0.2760104175635771 1.0080617797674019 176 107 70
0.05206599677013765 0.3349917234771668 1.087011491581454 17 10 12
-0.2556537197437077 -0.041945881255017727 1.0740845497782903 13 126 6
-0.2671207622260415 -0.06456331039966537 1.0730461769875248 80 108 34
-0.07243553714945303 -0.23594887164687556 0.9409686982654899 169 124 87
-0.10839630729868147 0.31889004438727697 1.0560311329843153 21 13 16
-0.1034317694411966 0.09095244390566011 1.0294824107819087 223 206 172
-0.03518310297006817 -0.27386259174723543 0.9530277133745195 133 83 52
-0.12537551993154497 0.3336632319312445 1.0807372088876632 64 43 52
-0.03078006968874244 -0.315438131318748 0.9278414986889614 55 35 31
0.04170481518449081 0.3123544529476629 1.0283309367504572 85 44 40
-0.08492457100871519 0.11747846153182928 1.0616656362385128 237 143 38
-0.10984189689237861 -0.22851605805294994 0.9688974117506404 173 128 88
-0.09640418311468334 -0.08023343324580719 0.993912900496951 127 89 63
-0.09537466838283173 0.30674425584959797 1.0713781872350634 55 27 29
-0.18140104992557107 -0.11570588417896985 0.9983695531804138 170 127 84
-0.09787965632499512 0.10043365049842506 1.036168466189856 226 138 35
-0.09292698188800082 -0.034262064996036366 0.9754769696704371 142 102 71
0.018944778601474102 0.2232049757659156 1.02154457586732 142 96 70
-0.0582533689510679 0.13487601600189064 1.0956709308347552 130 187 122
-0.22853156476943054 -0.05243164828894794 1.0568198322328117 133 105 73
-0.011042373114400383 -0.1322753523867007 0.924351121308332 159 119 82
-0.12702652118597596 -0.19328918795524308 0.9935291258349278 136 92 65
-0.06895297183257015 0.055380498825458375 0.9847645765573341 232 147 42
-0.13926138987838851 0.3418571015591705 1.1141520334965485 186 161 149
-0.02522518118734105 -0.17055810531419646 0.9237917626067618 160 119 84
-0.08300434040360774 -0.13749689970827988 0.9598503053287876 94 63 48
-0.05148796427720748 -0.3021308156550565 0.9771384686633515 199 129 89
-0.02411250494691331 -0.1772510149868054 0.9232140131470274 162 119 79
-0.09477961893834976 -0.024737651626864973 0.9898684414292626 150 112 79
-0.025323574571547314 0.08298508555930201 0.9979682491837144 166 90 26
-0.11456525698084948 -0.21895135470154897 0.9627993300111652 168 125 85
-0.0493309938860541 -0.30542545234815915 0.9875900526758636 197 127 86
-0.2213556007223282 -0.0757631125532328 1.038057828279714 180 133 88
-0.04783337500563544 -0.23976263153336871 0.9371258864778735 168 125 86
-0.01819654792886153 -0.09125799821411304 0.931838520655065 152 113 78
-0.1288535353286365 -0.187499282247539 0.9967581596181337 157 113 79
-0.10082321434653439 0.07000272026510397 1.0214993493960947 239 218 180
-0.130669071733319 0.3337840783973583 1.086388862438838 49 34 42
-0.1385013402492498 -0.16306361484099918 0.9610797946296223 172 128 86
-0.25667995396850535 -0.06677909972742804 1.0687593908023039 164 94 69
-0.07256261028017447 0.0007504925536112329 0.9682998171931417 167 122 80
-0.08859648566162505 -0.10280145947983643 0.9693184692090718 127 90 61
-0.1276396329119331 -0.18337617014150745 0.9565007356179923 179 134 93
-0.10683251287771181 -0.19287092209449644 0.9457146495838009 144 106 76
-0.09128566848886487 -0.11608660864404031 0.954702122973394 128 88 63
-0.18639263475692988 -0.10560697363843201 0.9995632824816156 175 130 90
-0.04853159902778673 -0.28952945868013547 0.9617257546703836 181 118 79
-0.1928325836723462 -0.07070641703189127 1.0266167096353715 86 95 47
-0.03472164043562636 -0.14890337383520044 0.9302322370161448 159 117 80
-0.10361648491416084 0.3281407031300579 1.039529462699563 40 28 33
-0.021711660776048917 -0.03436711935925963 0.9415878105867418 144 102 71
-0.0918036716095974 0.13186279829846403 1.0492040636094448 178 104 36
-0.08682025026980611 -0.036537328014448166 0.9678224369834189 150 111 77
0.05993016138041827 -0.17881705599311062 0.9311450299626534 143 115 74
-0.09139166835595854 -0.11693592524814474 0.9547320307353673 118 81 56
-0.20075224543618783 -0.06639510948520769 1.0333614755646066 79 94 40
-0.01948783331405368 -0.04760791716161586 0.9402401133541428 145 105 71
-0.13533431830851805 -0.1782975548671595 0.9727931182048115 170 126 86
0.06200501015680231 -0.1682810034171801 0.9335649951274058 154 111 77
-0.054579556597144634 -0.33156965169497293 0.9568991443476208 71 46 40
0.008097583393129321 0.09357400310008093 0.989391880624436 217 134 39
0.006052205202308688 -0.13675706633131224 0.9260957580569588 156 117 82
-0.027147476789086855 -0.36238397262019933 0.9399214802833895 7 68 6
-0.017715578410860022 -0.16244309397634457 0.9231553604459497 159 118 82
-0.11258946514979185 0.3486717414017259 1.0528821276701013 42 30 33
0.01513905673576788 0.20688307438513107 1.0100290138804893 153 102 72
-0.06438088693469014 -0.1367829418437669 0.9382794361998549 158 119 82
-0.09421467837285702 0.3071649930171807 1.0727040729300608 18 14 12
-0.0995416966249992 -0.05340222509544966 0.9875943490915866 140 100 69
-0.11578145824599083 0.3261855794031523 1.084571669809436 28 17 21
-0.12254378771774838 -0.20795571346615072 0.9796659578868645 174 127 89
-0.09729483331107369 -0.14620644250403197 0.9702842899500631 77 52 39
-0.0029636312019456993 -0.15465780082528355 0.9226729943197162 162 119 81
-0.19452790598213554 -0.08644425771700875 1.0023172774123388 160 121 84
-0.09742570985198767 0.0772367895194238 1.0436698282329635 164 95 48
-0.102296468204188 0.0947439335899921 1.0197522598044968 138 92 64
-0.10385900863393807 0.3141451081828377 1.0471674586694546 141 83 72
-0.020837788724438894 -0.12130877366682016 0.9286549483395894 155 116 81
0.06501674023980475 -0.14865795126806028 0.9344600969903382 145 106 75
0.042610937448113125 0.29202525000342144 1.033242761940712 155 107 81
-0.047372392654598736 -0.07502130517026682 0.9385306825283868 156 115 79
-0.08519423256072219 0.20955808777625187 1.0097614885089436 165 103 70
-0.127993118947103 -0.19411675087330033 0.9781951389673036 170 127 88
-0.07301061079757436 -0.2139723006232756 0.9382581976242642 139 99 67
-0.03241195640838523 -0.08931254949921688 0.9347602375577748 158 117 81
-0.022502829230628307 -0.22125347472600818 0.9259379276508174 163 121 82
-0.03838806679601274 -0.2856325884614144 0.9509646142872896 70 43 34
-0.006751805135094667 -0.2568759582441409 0.9470807906194088 151 103 70
-0.05446823561934008 -0.33493109901589835 0.9609216162983392 59 34 29
-0.044773448892306715 -0.25923326160240817 0.9526265297897017 149 104 70
-0.15482687474637208 -0.1470010055761971 0.9909890621865911 174 128 89
-0.08574856459683877 0.2058554980199275 1.0097972942404088 172 109 75
-0.09441261812347364 0.01759775529766364 1.0104787294922266 251 238 230
-0.050721935056979896 -0.20600427504414354 0.9273457619477856 159 118 81
-0.09973519827922062 0.26560402350071627 1.0302760939696678 153 103 71
-0.20638046890519865 -0.06339200022132704 1.0400679181329233 112 94 61
-0.09233298225962029 -0.21744630179166444 0.9415431035549561 162 119 82
-0.024403965655752497 -0.15754181754953067 0.9238987501925771 161 120 81
-0.08698087635165788 -0.13152653758849941 0.9532412556080452 93 58 39
-0.09722812450111551 0.10346494864273248 1.043775397299872 255 255 249
0.06275737764184859 -0.1694402316262803 0.9333643843746644 155 113 78
-0.11496727935338043 -0.21498846165058677 0.9562408855306305 172 129 89
-0.10806841256477218 -0.1912149800080377 0.9464165770983135 131 91 64
-0.03613350828084898 -0.09810585527671892 0.935912494773437 153 113 77
-0.20046953920831662 -0.06994807908272584 1.0285198986752646 103 73 53
-0.11080655145886281 -0.22464683352195783 0.962570591940339 177 133 92
