ply
format ascii 1.0
element vertex 671
property float x
property float y
property float z
property uchar red
property uchar green
property uchar blue
end_header
0.00711500702362317 0.14237331378798623 1.0260430667433738 202 112 31
-0.037673623760816864 0.012730326711229733 0.9165601296637931 167 122 85
-0.04416795509893911 -0.027990662216037764 0.905981583125024 147 107 74
0.02759933988724609 -0.11921573198279818 0.9347570115935206 157 116 79
-0.08585124803739444 -0.11284813086773944 0.8399362773053478 173 126 87
0.04947500325868853 -0.07803153864747475 0.9880429560188164 154 115 81
0.027681240974930674 -0.042012750881827 0.9386261130864263 157 118 83
0.03181704894571515 -0.13367935318438798 0.9377090596749117 158 118 80
-0.018282729729318967 -0.08313517184666891 0.8943235632927536 142 104 72
-0.0399365714129271 -0.042992009534757215 0.8983479863025284 144 102 70
0.014143287525093263 -0.15258174702823074 0.9180110203144034 151 110 76
0.03404395594685714 -0.11256918225164779 0.9409635593714295 162 120 80
0.02763427037357787 -0.12651660022631453 0.9349408173933463 161 118 80
0.028698852083845188 -0.16295962473126419 0.9356580015464134 161 121 83
0.007087843825187054 -0.10076425254045038 0.9152592006043087 152 112 77
-0.17978244651001327 -0.04090407267382047 0.8126972411238662 176 89 73
-0.009436511118759594 -0.33350082136086195 0.9001261918308243 41 24 20
0.037206763824361645 -0.11281742851872502 0.9447418168782372 161 119 81
-0.02514543478476272 0.1394740625739465 0.93374721807077 235 148 43
-0.08454447720220894 -0.13616442817484242 0.8550333171223743 139 96 70
-0.11284309688335464 -0.057767615087505844 0.8186046092173486 177 131 89
0.015237634996968678 -0.17849625800785474 0.9215115499468397 155 114 79
-0.030107070952329992 0.2747659747906268 0.9546152471618384 160 108 72
-0.003136080525495984 0.3118476891064962 1.1101727342261865 7 3 8
-0.044881063596539456 -0.050178668989931716 0.8980090461731378 145 104 69
0.01827901901360856 -0.17893049014747148 0.9244162662064204 159 116 77
-0.10608792776882413 -0.07269122223805478 0.820998220690568 175 129 87
0.007000004882806499 -0.13175683190726636 0.9041132148053427 155 114 77
-0.01383119134079406 -0.2652349763819318 0.9201740612409216 164 117 79
0.02428237551778606 0.06681956590124978 1.0128562776282177 210 133 46
-0.025090679165567245 -0.08820556750860646 0.8901794551914889 130 92 63
-0.03814438096170955 -0.025690669585111296 0.90604645310024 152 112 75
-0.004124192828130735 0.0006141269865669919 0.9268619357470549 168 124 84
0.0011636379669722364 -0.06878690360601848 0.9081823751395696 158 119 84
-0.007740087543110449 -0.3133575008137215 0.9089291158510906 49 30 28
-0.020668205545253004 -0.2977947508706081 0.9131267965960265 60 37 31
-0.008468240558145716 0.11615894683979895 0.9519599709832118 229 144 43
-0.06334622429613185 0.021483638086191987 0.9215290319739852 242 225 212
-0.0345421309512244 0.0068581128492705146 0.9153351880705121 164 120 78
0.026529840542431952 -0.18261876866717736 0.9327431158518777 157 117 82
0.022454846752828606 -0.10892050831813242 0.9326802588262602 157 114 78
0.003114290946665001 -0.060766132558454734 0.916376245855811 150 110 75
-0.06333808928568965 0.026523071257616458 0.9224490001636358 243 228 217
-0.07713470502915197 -0.14712743920431656 0.8566016617894008 164 119 84
0.019287701367155036 -0.11570912570770286 0.9254781031885693 159 117 79
-0.010609799627501327 0.3303704571069878 1.1075984094369948 47 34 38
-0.06016096657711958 0.009185254340408944 0.9210459271949499 155 112 74
-0.01599749512079561 0.11893979262777006 0.9433295533475574 233 146 40
-0.03816438834853826 -0.02304229533325068 0.9068036964228324 147 108 76
0.03290951064890108 -0.10948402233731949 0.9403530420383188 159 119 82
0.02137485236679176 -0.18068030893673745 0.9281934307644363 158 117 81
0.01319389981874678 0.09966786579097928 1.0141911917139246 215 131 40
-0.04242971814619207 0.05252643583427876 0.92093881977255 191 137 107
0.0050685338300378805 -0.12680901220751656 0.9023292233845166 159 119 83
-0.010203030793367577 0.10705395947597571 0.9474030750336673 238 151 46
-0.03453442443886333 0.050973619512587276 0.9214558037999165 249 239 227
0.01934556916937803 -0.05528026454485681 0.9320893435703929 160 120 83
-0.0870092923424871 -0.09630171017911539 0.8268960081924549 177 132 90
-0.02293177651122727 0.021193503794342868 0.9237953732100924 252 240 232
-0.035401701188885686 0.2993936450353772 0.9580370645081967 149 99 68
0.03517564126358021 -0.05151465901550739 0.9477976407116462 146 108 76
-0.04533298173738713 0.33365613374468356 0.9553891011311253 169 113 89
-0.06512560572119816 0.01808871980565238 0.9222572155181585 226 207 189
-0.06060327449330774 0.019978679295670543 0.9274730684890841 244 226 211
0.035961337644149396 -0.12793594901468724 0.9409910834926598 158 117 81
-0.015339770656504633 0.33979816199196483 0.9794707451630147 1 123 0
-0.00282201566696634 -0.05822708417307918 0.910862855008437 159 119 81
-0.11835018170784063 -0.05925231238928741 0.8211653734458676 178 133 92
-0.08740350948420421 -0.07685779899489185 0.8217211575604828 170 127 86
-0.022106893440561815 0.06785944478115777 0.9313656979166031 236 149 41
0.027267890398000694 0.10538747715949857 1.0438563537669974 219 135 36
0.01565963847240753 0.3171452871809513 1.0895128151984874 62 33 29
-0.06755010317793536 0.012538755463650924 0.9222183089402735 153 111 77
0.03295451655214919 -0.03508271276684103 0.9510873395818145 148 111 80
-0.031050970910061888 0.1059917105873667 0.9258597760082729 246 154 47
0.0300485735742773 0.19571037748396394 1.0481492522437548 173 117 79
0.017304407856707622 0.2785733566056554 1.0785182289285653 145 99 81
0.011774227144772397 0.16533800071874444 1.041868287400965 165 111 86
0.05147871283277069 -0.2035125631446113 0.9850577121849889 166 117 86
0.037133202418318134 -0.11526841428317065 0.9448233782878932 166 123 83
-0.07089467863074622 0.05204231081129375 0.9297209552783205 247 237 229
0.014155943789604684 -0.1721431382241017 0.9166556807762116 156 116 81
0.007928566935422689 0.11666139041006435 1.0224854116844166 203 117 32
0.03625768900783135 -0.1831395885820742 0.9464364554685514 161 120 82
-0.000791245754015251 -0.18677041150055365 0.8867028429439334 135 93 62
-0.024030841530747183 0.24500547178953203 0.9567442110510418 161 109 74
-0.059680890048715116 0.32019035233405485 0.9817086284750037 16 39 9
-0.06905424436367129 0.0022880008498422713 0.9205736658977373 149 107 71
0.02967610525595242 -0.17387909683346578 0.9359721804026164 160 119 84
-0.046877465255016064 -0.22671002341515653 0.883592100286651 175 126 90
-0.0037030858279941065 -0.33400403570056575 0.903628659994212 56 31 29
-0.08963866149586786 0.10361793564608393 0.9611338245970764 252 153 40
-0.008929036138549477 0.07099294096225599 0.9393027747192902 235 151 48
0.00834043875853708 -0.24932101659622302 0.9412178759993008 160 115 81
-0.06271451794139249 -0.10085981158979328 0.8371094376683139 172 128 89
-0.021239439529303232 0.08909805403347412 0.9334462047653179 241 150 42
-0.03382272390168234 0.19551135524583949 0.942223395618055 186 120 83
-0.03150895775221975 -0.029524271688203936 0.9104332851115597 152 112 75
0.023393006023756317 -0.15959789744883515 0.9280428670269271 160 120 81
-0.1258937384683315 -0.06793098305435018 0.8234652741015994 180 135 92
-0.0037747225968594524 -0.2427241089706202 0.9103717611856784 171 125 83
-0.08776548727853574 0.3458725112130009 0.9788815647769137 7 97 5
-0.04791615831109961 -0.027090513818827093 0.9051638440912636 146 106 71
0.006023662919882001 -0.08206733050788956 0.9114508491069795 142 104 73
-0.10151080672981987 0.3545711925903655 0.9787916264255712 32 30 21
0.02387098005779497 0.27557067638200033 1.0806268168066873 146 97 72
0.028641503067517574 -0.14151225744630386 0.9354676969786497 158 118 84
0.027925584401341727 0.2225426590633606 1.059739817211235 146 102 76
0.004072171197252992 -0.11104343174839063 0.9025727187329786 159 120 82
0.031813819692171494 0.07447516580843352 1.0439734573429853 203 141 41
-0.03189308083294772 0.01929625485982592 0.9210936615303252 244 230 224
-0.009423261239071647 -0.3363423852750051 0.9014081896749143 38 19 18
0.008168350063526227 -0.20210237293668462 0.9021985210190514 162 119 81
0.026721459097588142 -0.03387905387335317 0.9376451625607535 158 117 80
-0.02793561210411513 0.27993021012351554 0.9562286880130959 157 104 70
-0.009068194293331173 0.07581326158579052 0.9423509042693822 229 146 47
0.008587610362761042 0.10535799403423234 1.0118497035226195 206 120 30
-0.01180550238486179 0.010436257132338849 0.9267307259483006 170 126 87
0.02093122379115825 0.2152372488388181 1.0566587633861955 153 101 70
-0.04077919281177277 0.363845908701475 0.9547604368421017 26 17 20
0.028759096785338563 -0.08956111806216313 0.938266372125335 158 117 81
-0.03571915062957465 0.3291266507865558 0.9573755400301939 158 107 83
-0.0458614713251095 0.27510379469820956 0.962073945724984 145 92 69
-0.02456889748692967 0.15480019868372707 0.9441628267346425 238 147 39
-0.0017676676223109871 -0.10106138789192932 0.8979154287904516 162 121 82
0.022370862673323662 -0.19269368938946824 0.9279254640264643 157 116 80
-0.015235716668314532 0.10026250141432688 0.9411624389435745 234 148 44
-0.009660513842427474 -0.0935575066428195 0.8928778867713096 157 115 78
-0.0017473687310576075 -0.18068757119136222 0.8861747892123221 118 78 54
0.03679043395242686 -0.022671530576827494 0.968695644813735 137 101 72
-0.005671924570700982 -0.09984102401907882 0.8929704779108724 162 122 84
-0.028675782957012508 -0.004106726876951275 0.919433463062057 165 122 83
0.025504615047071674 -0.1562557115334355 0.9325237466408876 155 115 80
-0.027006581065114953 0.040229628824779436 0.9244057466820979 248 235 227
0.023451586076999913 -0.12893523951647692 0.9323244320490696 158 115 80
-0.03808387071431885 -0.3328114277408113 0.9034593054694589 48 28 28
0.02560161469403732 -0.12217914982458358 0.9337866427657465 154 114 78
-0.03446482139247136 0.23478629146614372 0.9468282458763895 163 100 72
0.010647540797879121 0.2149555490671903 1.0483354916731993 153 99 73
-0.010650171772960678 -0.0646575017528279 0.899858422977008 155 114 79
0.020351354340306146 -0.09742902232809461 0.9319401393268536 154 113 77
0.005147303764906449 -0.0032497733874987606 0.9333574845860834 164 119 79
0.0448018574462645 -0.15730447529088037 0.955654517767292 160 120 82
-0.007936741969497011 -0.26909239615972924 0.9342442552049905 156 112 75
-0.07395171523658026 -0.11365569287738163 0.841658813709982 174 130 90
-0.016559470901787412 0.3153766553635448 1.116106811509709 55 49 38
-0.05647118259472119 0.022154929083100273 0.9238492949541496 251 238 226
-0.024150588584283688 0.059484248315311794 0.9294699095101396 230 139 37
-0.025084639920751686 0.12164015610447947 0.9342305307343869 230 141 37
-0.05656125022406035 -0.012024647916081205 0.9063836380272784 140 100 69
0.03720504273978533 -0.0992612536311568 0.9455578857740943 158 118 81
-0.02525652565460356 -0.062328397156166525 0.8983890645363045 127 88 60
-0.06253584025981726 -0.09194183404782907 0.8411890089948206 156 116 80
0.031168689139155006 -0.010154978013025515 0.9563277042516124 162 116 76
-0.049882084433074694 0.05202643898765919 0.9188453609590431 255 254 246
-0.04992011518048788 -0.019865917485198586 0.9072063308662934 136 98 70
-0.007935025154524884 0.14341576033349426 0.9890844144497748 192 114 32
-0.0027457413180121087 -0.07311941863391871 0.9025913043378739 163 121 81
0.013154099710730897 -0.1391722459163664 0.9190229987777924 150 110 74
0.0010986865664371584 -0.08436458730358133 0.904444639407591 158 118 81
0.020336819759118382 -0.12677046545524348 0.9257466700892478 161 118 80
-0.030852591358054002 -0.018933328185266177 0.9098487151193655 146 109 75
-0.03844835391760502 -0.29717281748743785 0.9112208150827615 153 74 56
0.011151864554520712 0.12622296375196349 1.0281003178165808 213 122 32
-0.013146050703082546 0.33188321053691716 1.109818989425817 17 10 12
0.026531296971658437 -0.18540946274490583 0.9326048259896097 159 116 79
-0.05895379651902236 -0.1638672458984895 0.8542045919548563 167 124 86
0.012164462175798413 0.12969972810432107 1.0290099631006067 211 121 32
0.03094800146922098 -0.050379563084794986 0.9449035157048012 158 117 78
-0.02403169727597387 -0.30769502683289596 0.9026725391940448 73 47 40
0.035518138259375255 0.3387722352930974 1.0806868715118318 18 11 15
-0.04653640199873206 0.02282964908605176 0.9155126889224885 247 230 219
-0.14876738398099926 -0.05311157959694479 0.826180479379377 189 140 95
-0.13666429855534978 -0.05266504976060735 0.817439840694163 149 106 70
-0.00703459614735042 0.061105060663034755 0.9377633253315262 233 147 47
-0.012508417138538655 -0.296965058735627 0.9143357708233503 56 35 31
-0.026878122886539096 0.1797774172982888 0.9551324355262693 177 113 83
0.03406692405771809 -0.09496720475483876 0.9420343832642168 159 119 82
-0.01450631044187311 -0.07920051466900893 0.8974231542510688 147 107 73
-0.006795239079641587 -0.33328948663350444 0.9019425738641359 55 31 29
-0.029723910650681404 0.03860427353538755 0.9191164951540322 248 235 227
-0.0008268776885408861 -0.28480122905211946 0.9248421490451912 46 26 22
0.015342381320305767 0.1935182769000224 1.0471485525008821 155 105 75
0.03703736885504297 -0.11842787110267813 0.9429639623693576 156 116 79
-0.008514495566312544 0.09996513119574028 0.9476478988252377 228 145 45
-0.014854518021736615 0.011399190394507956 0.9253354946615572 169 124 84
0.024202768919688727 0.21326505603577892 1.046809775693093 157 107 74
0.04137070977338746 -0.16314249748823845 0.9478322887048722 164 121 82
0.004261822656372343 -1.0631270303879691e-05 0.9335777970949891 165 121 82
0.03395979576857578 -0.1461879569834613 0.9399317070424483 159 119 82
0.01092925511744744 0.2019112058693935 1.0474452167831554 149 97 74
0.04592675179422691 -0.07669326018553833 0.9788713237453944 157 118 81
0.005521130673161835 -0.2988151463174866 0.9263727978004228 39 23 20
-0.01639287052315352 0.14661889300050096 0.953914377596074 229 141 40
0.034960235472507026 -0.12407898233621495 0.9411261863889785 155 116 81
-0.004940272446806419 0.0033400284585897192 0.9287874710407235 168 123 83
-0.06108683374311818 0.1121370071373125 0.9298416560588558 223 206 172
0.00020710559833243266 -0.05594904785077042 0.911312104741027 156 116 79
0.024520669242298343 -0.12537060296470431 0.9329347542078148 154 113 77
-0.03463899597276829 0.01971403854229359 0.9186441681826701 250 237 229
-0.17448543265591493 -0.03365807164698331 0.8078902974613759 200 111 88
-0.0998922801006359 -0.09072911207329971 0.8317158591937956 166 123 87
-0.04301407087362737 -0.32027691936874164 0.906518077274405 75 48 38
-0.012220497330176903 0.3181209479193795 1.123050814109321 9 6 8
0.018304660466322606 -0.03335612456891345 0.9291306126449648 144 107 77
-0.030120947834429323 0.11294824603775427 0.9273677336066717 243 153 46
-0.04070774950190067 0.18366460280956753 0.9448719149962144 180 118 85
-0.01160368505571573 0.09284471443205396 0.9484496946973413 230 146 45
-0.08133657228936945 -0.0013221140384573984 0.9240458233898783 147 107 74
-0.017301389917116453 -0.3066772782073132 0.9063172354272768 59 38 35
-0.0027718195757597936 -0.07738182245162052 0.9007011399838731 162 120 81
0.01725279769487344 -0.17494046165939758 0.9238753939162804 158 116 79
0.007838976055322668 0.11284137608238635 1.0196731162720807 209 122 32
0.04394818611250081 -0.05414722695083368 0.980639412169836 158 117 78
0.0072017617784952415 -0.21051262991348252 0.9035882538060952 165 121 81
0.006055240425975784 0.16122220439286292 1.0369844570077542 163 109 83
0.007033702590871308 -0.143504531833753 0.9027148737645083 155 115 79
-0.068528136898659 -0.15398118555584325 0.8535544421489946 167 122 86
-0.019365073620059584 0.1439954044641168 0.9453320152462488 236 147 40
-0.005624193329691715 -0.3148013093518314 0.9042564904425894 53 33 31
-0.06785612958502135 -0.2096126150373509 0.878792175056415 172 128 90
0.021811904559602933 0.0011914957398140903 0.9494242825575104 161 120 81
-0.05602967377478818 -0.014989944290274225 0.9066508965116524 145 107 76
-0.09654895143026171 -0.08471147568841757 0.8245636856745997 172 128 86
-0.0066542321127160235 -0.09373994917307146 0.8924606404970196 160 121 83
0.007222105302213703 -0.006207288915899005 0.9344363659125408 163 118 77
-0.05356979510104687 0.04213474790629164 0.9178540811550759 253 241 230
0.039539766493677 -0.21161549303105073 0.9525032868612944 165 123 84
0.03918183863865413 -0.2310039764211733 0.9727310157720019 167 125 89
-0.0603550002568 0.1992929781245687 0.9731427339316501 145 95 62
-0.03411438858948982 -0.296312869046176 0.9059067879628353 158 84 60
-0.02755680770191744 0.19683542489024902 0.9459652116342133 184 118 83
0.004154703397659424 -0.04444812722922864 0.9149359710505164 140 101 71
-0.01788077976338093 -0.17236523967555922 0.8717573719541328 158 119 81
-0.0272038794948402 0.22771494316373708 0.9502216645003015 166 104 71
0.03285648118554671 -0.12838673965797429 0.9379979122861002 162 121 82
-0.06065054417669504 0.05331184309570006 0.9270724575604112 237 224 217
0.013033811605924464 0.1852599503309686 1.0445641343795407 160 105 77
-0.004675827972120454 -0.096971459350712 0.8945377847275676 162 122 85
-0.039450562286688175 -0.32131553384058203 0.9056435544323896 81 52 42
-0.03152074683963516 -0.004401582289413079 0.9142204653242145 160 117 81
-0.03681869564200801 0.2403136285569451 0.9469662082268788 167 110 78
-0.06157958366458968 0.2289246642624962 0.9676370504891157 164 124 85
-0.09110531027252992 -0.0839218817410547 0.8235377011754142 169 123 82
0.020374496497758163 -0.04920112219536502 0.932301283627036 163 118 79
-0.052810562208666714 -0.16316897473771377 0.8519074641499272 180 133 89
-0.068198914158975 0.06589229216735502 0.9344165768276839 222 131 31
-0.014403230696133432 -0.09000874958201086 0.8939483942070907 146 106 74
-0.01727973193843664 0.12418961936654845 0.942869005341165 233 144 42
-0.02123558268322275 0.08596006485919294 0.9330633867056793 242 152 45
-0.014025861929475025 0.06166837771145525 0.9318654627587771 232 148 48
-0.01734533366335643 -0.332472014131027 0.8994894543345389 48 28 25
0.027877002340085378 0.25188289748420034 1.0685417491219842 152 102 71
0.038046864576548746 -0.1546702882424327 0.9428778464105267 160 120 83
0.02152278663012521 0.14129555045523415 1.039605657876093 226 139 37
-0.026919846313167524 0.25079565849100555 0.9534369159161845 160 108 73
-0.03684914228775566 0.19255045582717242 0.9433742144414823 180 118 86
-0.03271062873911658 0.18185859892881726 0.9437082829808182 185 117 83
0.014037960948157511 0.21626704768996424 1.0486067625918878 149 100 71
-0.01794157841284345 -0.306392153773132 0.90653641084636 59 38 33
-0.04274532809474682 0.2843637950657419 0.9614365332756303 150 96 66
-0.03013126210413015 0.20461414889123217 0.9403731449686377 187 121 84
-0.06685799558916278 0.33111553537190475 0.9798106131022227 6 34 4
-0.004846968775410464 0.046114854778196414 0.9400997310542331 234 215 199
-0.0770051769611351 0.33742805625271416 0.984681037938795 8 7 6
-0.041354158999390885 0.013189551909401834 0.9155824492315527 158 118 81
-0.12995204035182517 -0.04590974784462379 0.8147802293383108 170 126 85
-0.026053782368642867 -0.08509804807591084 0.8909789598468368 116 80 57
-0.0007464652750533 -0.29542042531719725 0.9166205045147772 37 21 20
0.018370479573618995 -0.0772865039021927 0.9309076800781084 163 120 80
-0.025192254898883677 0.08258798470856675 0.9285244704489064 238 150 41
0.031709636380402494 0.07998894879609622 1.0452796835599927 104 133 20
-0.07134075494893702 0.009128742838261861 0.9248646379046658 148 107 72
-0.009416252430918483 0.10676654172753035 0.9482717566963353 237 152 49
-0.06532442879189192 0.11339105135212187 0.9334604775765263 241 214 175
-0.16097093322828127 -0.02205481202631832 0.8053715971473155 176 114 88
0.023577865233317948 0.13124018808143242 1.0376659953473921 229 142 41
-0.027019004752112726 0.09078347098343657 0.9275328989215574 235 145 40
0.008004739849111618 -0.11575173182340645 0.9075022692599516 154 114 78
0.02035418755097974 -0.16650835807010061 0.9284015861090944 159 117 79
-0.034006770348211056 -0.05168469009880075 0.8997555253483122 138 97 65
-0.04389932479952175 -0.3006322108687065 0.9099865212630017 166 98 74
0.030675944744481237 -0.18833886159074464 0.9356008546975239 158 117 80
-0.04407566782514758 -0.26971818191685276 0.9249723745791547 200 130 87
-0.031157875919345743 0.09118231656659931 0.9252011844763259 238 147 42
-0.00031856326595959653 0.32428078775201596 1.09320773438227 45 31 35
0.04421511275282611 -0.07900390966853135 0.9647763951727845 157 116 80
-0.02902928931891629 0.08546955591119308 0.9249290417581861 240 149 39
-0.018272070171839256 0.049094223850737424 0.9323337516042071 187 136 98
-0.01783904213055082 -0.2841619736805101 0.9232798300718974 70 43 34
-0.007916009272594436 0.0682210840092314 0.9399824828915306 232 149 48
-0.026010735220392326 0.06468561962185747 0.9254557643970304 242 147 37
-0.0074732426940875155 0.10334591054178488 0.9495840614379686 226 143 44
-0.026162897740716746 0.07044511234276914 0.9265612385528328 239 148 39
0.004264118222196295 -0.2507811821705575 0.9369274607292454 155 112 78
-0.04671736910187976 -0.28734113002468115 0.9189936076948919 191 112 77
0.014198025441770453 -0.022246507240747625 0.931033557009821 143 102 70
0.027924454552933468 0.23960915383317158 1.0640150617882274 133 93 64
0.02344522538663103 -0.15004908360991281 0.9298909345628166 159 117 80
0.006025148487737178 -0.08477544805988847 0.908645569095478 144 105 73
0.011644103790702836 0.20984298724535197 1.0470165763574113 149 99 75
0.029890679012465917 0.21864669415712 1.061141051883044 151 106 74
-0.038137337843629326 0.15266503957504604 0.9317135834334376 242 151 40
0.026591393863074644 -0.20369319837951683 0.9309537565747191 160 118 82
0.02365102331003354 -0.01030363038418187 0.9441219860924592 161 119 81
0.03806372745667653 -0.23390670683451073 0.9737400241470314 172 123 88
-0.014722592933073056 -0.011690867938455321 0.9216553627733185 145 111 83
-0.003735886812743718 -0.0656632412158624 0.9043104976199303 162 121 81
-0.0008890954421591731 -0.19587450705663892 0.8869157011457643 148 108 76
-0.02568788226348257 -0.008990435703974013 0.9186207635752744 116 78 53
-0.13337737870383817 -0.06289358474658166 0.8222848502758932 168 125 84
0.04050807621288167 -0.11827294084242772 0.9518587545349957 155 115 81
0.008601347890760839 0.3067301503851327 1.0901278989244174 181 120 94
-0.10165490278043436 -0.07866933752719721 0.8217285778314669 177 133 89
0.028203296368572817 0.12721208025991565 1.042970947408576 235 147 39
0.00029497082891429097 -0.32397843773460216 0.9072885296382412 60 36 28
-0.11684780043240556 -0.07111996991459711 0.8275254041053328 167 122 83
0.04898325905686981 -0.19680397049563642 0.9748589352711038 155 112 79
-0.18439923451465648 -0.034977544517682195 0.8075437049397034 159 68 59
-0.010346910860395445 0.11303817210067287 0.9482772632164577 228 144 43
0.026460958338893555 -0.20648404726794198 0.9303907698682525 160 120 84
0.010716217608831598 -0.016317593279597583 0.9259130347418869 123 88 62
-0.007937643133658088 -0.2855466513010985 0.9211556368725602 62 38 30
0.01527507208649915 -0.19603485400060727 0.9195501665800248 160 117 78
-0.030948851514220038 0.024908758833353917 0.9206732076120236 250 237 229
-0.08000209304237942 0.34074291007007546 0.9821787889574517 6 42 5
-0.07406556962653615 -0.13897039200851347 0.8547319695965466 180 134 94
0.030868326324609816 -0.08631763915168357 0.9404016956649738 158 119 84
0.0091227630915853 0.12964826465800547 1.0275040882717283 207 119 32
-0.012208918027903474 0.11747188307032462 0.9470915383706262 229 143 41
-0.030216771962861984 0.13577337424711494 0.9360850548155336 250 159 45
-0.13419020605417106 -0.03838046395190233 0.8188720635844899 152 108 73
-0.15208969419658794 -0.011920307695379979 0.8104099056345654 11 125 6
0.010017645732001097 -0.14241296538257064 0.9083069654171434 146 106 75
-0.04637213559797371 0.006177801469211907 0.9137069180097714 162 117 78
0.04385540042837561 -0.10873438046238305 0.9556642928888514 154 115 80
-0.15609429433432784 -0.028243905042230656 0.8073059223246222 139 82 64
-0.021239082405608584 0.07639608327944357 0.9315524052959046 235 146 41
-0.023132999367324495 0.11882729217246157 0.9364520474448415 237 146 38
-0.04436133741420817 -0.005676485282309129 0.9121131552350631 152 109 72
0.03714194436629466 -0.11001907880857065 0.9446528769013472 156 115 80
-0.04442331749464613 -0.30025780212323866 0.9107909671832461 143 85 55
-0.012592590448296258 -0.2450134799690302 0.9051679542356834 169 123 88
-0.0168064600900276 -0.2633970994621194 0.9176719014871144 169 121 80
0.018346390261298407 -0.03038368463863386 0.9300379406633174 143 104 72
-0.042241275900267744 -0.030762964289987014 0.9076592943178718 142 102 70
0.0237771673429911 0.28932025819064244 1.0836845367580885 159 107 83
-0.03640512453612449 0.3647245692437428 0.9550233888014935 30 19 24
0.004231967516762108 0.04422189376884327 0.9441023697776022 229 209 188
-0.06961280433805134 -0.008602232618832802 0.9138233545819364 114 79 56
0.04106243451166896 -0.0019539585125096376 0.9896010916905909 47 127 24
0.023445462330116913 -0.12605410220310523 0.9324365221435582 153 112 77
-0.0075166281088811975 0.11305570282312069 0.952127326768114 228 145 46
-0.04042627819425134 -0.292291816946255 0.9154805118692435 151 68 55
-0.08226790934709935 -0.06952250769875248 0.8263760320206766 141 104 74
-0.05362349459855689 0.020800706797601043 0.9235319535397774 248 230 215
-0.018303109855702524 -0.3440532293814968 0.9002271768878614 16 9 12
-0.018888201550607057 0.16397344151256202 0.9476967934892749 237 148 45
-0.007607498374286359 -0.08995238272727382 0.8919994336503841 160 120 82
-0.03713079474578152 -0.3249105154119572 0.9078434147806324 62 37 32
-0.07524236437529834 -0.15469477913867244 0.8557460282788001 151 105 75
-0.1681696354190933 -0.02554058637253741 0.8029108369909386 203 107 86
-0.011684805946169713 -0.24555445411145424 0.9068512091725629 168 124 87
0.03173370702524396 -0.17832338775143966 0.9376280183217532 162 118 80
0.04401793094363986 -0.18446294123496923 0.9604126627189549 161 120 83
-0.06178413132258139 -0.15115246194404705 0.8507539395706193 177 134 94
-0.012388096224698896 -0.09399460413118003 0.8919907413337572 148 110 77
0.0031331216281340257 -0.012412656765754253 0.930880158136404 112 75 54
0.009691584203614293 0.09402317016853744 1.0075317050919603 204 121 33
-0.028947326168044477 0.018469016975352748 0.920870389522561 249 236 228
0.030799753279852984 -0.09942973639750881 0.9380182300073966 157 116 80
0.010012571413404675 -0.21244579862791152 0.9084511640493642 162 121 83
0.011046120446217163 -0.15737364078320062 0.9101877463430447 146 106 72
-0.06912514243113109 -0.197221758976742 0.8722663166229604 173 128 86
-0.10055861154336938 -0.07037797872635819 0.8202285651052027 174 132 91
0.035100116278878525 -0.10468055919760116 0.9425783425428288 160 118 81
0.00605274993439223 -0.13425539759413047 0.9025096684382402 159 119 82
-0.050636352675607024 0.02163202601284929 0.9224700955490872 248 231 217
-0.005926376681701492 -0.2817269671107556 0.9320764010182339 72 42 32
-0.012762236260109533 -0.298660086447874 0.9112326233664438 55 34 29
-0.1929581226662275 -0.03657727997299093 0.8075497266335667 163 80 65
-0.02188922285297114 0.018386205561590773 0.9237873260024312 250 236 229
-0.014277721810408015 0.09085297615234701 0.9406090781270459 237 148 40
0.01482586336230942 0.2307510805568739 1.0656261898446788 135 89 64
-0.012471795466529887 -0.08698816630281318 0.8936622854866344 149 110 76
-0.020288549045680518 0.1088409521521704 0.9374871898339345 231 143 40
0.0012348410529431518 -0.2499528303193804 0.9311881292512134 155 111 78
0.028138869666398378 0.09646081330701758 1.042598392729655 225 140 37
-0.06903843243825572 -0.13356321391113543 0.8472125814658542 176 132 94
-0.004702290877850425 -0.3001262027315148 0.9130794217199613 47 28 26
0.04031842335026343 -0.14513523538510267 0.9468699190159908 162 121 82
0.019944441986874235 0.08916974852641542 1.0216565608693595 220 137 40
0.0013619594759035191 -0.33067732008401474 0.9168193783613593 60 36 31
-0.07671156814413675 0.1418331172621573 0.9509685166439455 229 140 41
-0.033856898294925594 0.3502804542635871 0.9594257499935491 45 32 37
-0.04573904773548132 0.04620161096093153 0.9215087979964833 254 245 239
0.021946629063042324 0.07513180205661675 1.0114398119828212 208 128 38
0.0361425222862908 0.14052799365975133 1.0611355088265806 225 150 40
-0.07739433167885328 -0.11170658394660112 0.8493678484088971 162 120 82
-0.011738506323443532 -0.2592785492176862 0.9241178378027036 164 115 74
0.02576534316244895 0.07911941087500102 1.0315300061836963 224 141 42
0.03718565189012597 -0.09621624141394168 0.9454913439364102 154 115 79
0.046023719734145076 -0.18792552615077665 0.9631658745553623 151 109 74
-0.07076546262365128 -0.005827115259870132 0.915610883298908 142 101 67
-0.07102355246019054 -0.19166581346925882 0.8722271381828326 170 127 90
-0.07556460012136869 0.008137889978434266 0.924671356795631 143 102 69
-0.0675101176479661 0.12500190255280993 0.9377041556766755 198 171 148
-0.03562249868888726 0.31281877345785886 0.9577942600977631 159 114 81
-0.02335493404666503 0.14262957491937903 0.9369370105961053 237 149 42
0.020890584759672655 0.077471773131605 1.011361653925827 206 128 39
-0.10801250442488804 -0.08316566849620824 0.8293082639102445 175 131 90
-0.04435221556090684 -0.0031833298428720477 0.9122667608195183 157 113 77
-0.03554657344672918 -0.00227861902632077 0.9135907673708813 163 120 80
-0.044406143880994065 0.018296528817904962 0.9146802707591248 233 218 207
-0.02405999827408877 0.32676224652162833 0.9799860049536663 52 64 24
-0.07061852080271265 -0.20451299704506704 0.8775438318557656 172 128 88
-0.08147004290936273 0.0019304788516447886 0.9250642480122385 151 109 73
0.030514066559574456 0.3536536257810415 1.0728541894379984 17 11 13
-0.16099812102578379 -0.02827747035304112 0.8042619915156671 196 117 87
-0.006818530503534196 -0.006547364355541199 0.9253572330438551 162 120 81
0.03817506516635761 -0.10483110593478534 0.9470178276942742 154 113 77
-0.015418256775311091 -0.2997908726217247 0.9131840017285677 56 33 31
-0.09103662690316854 -0.07492568343391703 0.8216454059497128 172 128 90
0.01639787701571598 0.08466237264999582 1.0076121636300088 207 127 40
0.04162888210923216 -0.16865420884040966 0.9519824862574432 161 120 80
-0.046736967650600765 0.045758578079675025 0.9200603862405118 253 248 244
0.03611931285397695 0.00017498107853296352 0.9786124861224672 154 115 80
0.018927849343630506 -0.04290782412687921 0.9290551024031263 163 120 81
-0.07705069445393592 -0.0011679415341355704 0.9206008554477173 145 103 69
-0.011595763293508622 -0.07901678940207549 0.8962869032993137 151 113 82
-0.030957596545169226 0.11942163512619765 0.9271471391152517 248 157 44
-0.0579810030784557 -0.22255498582406966 0.8827511876599013 174 128 88
-0.029226301151664438 0.05076702614726224 0.9232459296528587 202 141 95
0.023412269250334516 -0.19578643353433395 0.9282708308622842 158 117 80
-0.036126949380803776 0.1386612788353866 0.932420369283463 241 150 41
-0.0344244845196425 0.20944392357855404 0.9409437029071132 183 117 80
-0.036836893982339344 0.17780346238357836 0.9457132669836972 176 111 81
-0.07882118112825505 0.011010801278867876 0.9284317654641647 151 108 73
-0.020209444736608254 0.07078903300005249 0.9326675177198178 234 147 43
-0.0963562595380667 -0.07069410855289433 0.8210779350977445 176 133 90
-0.08462622020711391 0.0010828845957150403 0.9268337520591041 148 106 72
0.015838608577170666 0.10539733543622377 1.0273070057292315 222 135 34
-0.015356841924612728 -0.3385032192997504 0.8986028430446684 20 12 14
-0.007578212738056745 -0.08012592107765411 0.8944893341834542 160 121 84
-0.013723448556886356 -0.25724105542438336 0.9185255629380598 164 115 78
-0.034008269265888846 -0.048095526416332364 0.8997915926816797 141 101 70
-0.054613963744265775 -0.012072290053935793 0.9072006730182103 128 92 67
-0.1049583088450448 -0.06340210846412947 0.8195510521853372 170 126 87
-0.0008052920117400438 -0.2778841171034541 0.9423429601254272 145 88 58
0.011141177664872614 -0.044443835866427195 0.9229411840688373 160 117 80
0.023916665930568664 0.12284309217629032 1.028479649739692 228 142 39
-0.14399321035161908 -0.02162350648834864 0.8231984601036465 141 102 73
-0.017397773285900395 -0.07312205798724619 0.8981142311087732 146 106 73
-0.1591471503521117 -0.03592460005314102 0.81038477910259 164 106 76
0.028628200313533452 -0.15619826045292154 0.9325362303999667 160 119 80
0.021465739687427182 -0.06283825301358788 0.9340306159710267 158 118 81
-0.024151917195780515 0.08798211467257738 0.9303258424624345 239 150 42
0.008500216371870798 0.31013667555635877 1.092051802659809 176 112 91
-0.07998575327119352 0.13045636147415346 0.953775623893551 240 146 40
0.002135498064752035 -0.30347931626635677 0.924274910579664 35 21 21
0.03491392529824009 -0.13498558593338933 0.94033153328166 161 117 77
-0.03709406435540401 -0.3385467366966123 0.9029770585676469 18 10 12
-0.026238175408069084 0.2009602958315254 0.9429719798429809 186 119 83
-0.03180140210076797 0.1884387534172152 0.9473739757008723 185 123 84
0.012290436622669734 0.3103518270207609 1.0902164426497585 161 103 82
-0.032084553543605204 0.05082012933669218 0.9214668292875707 233 206 181
-0.03593344455023651 0.34992886879247187 0.9590328398435184 55 40 42
-0.07022449950406638 -0.014363866731086467 0.9120477673385853 136 99 70
-0.06710261159693137 -0.21251219336221325 0.8812574552528939 170 126 87
-0.0643281417889159 -0.13557266842843785 0.8472035503341189 176 131 91
-0.007822090929761277 -0.24777921724514432 0.9174623569500152 172 124 86
-0.07473712240205138 -0.15756138726246974 0.861413521742485 156 110 77
-0.16845425670437733 -0.025437468870083184 0.8033073372551914 202 112 91
0.024604835229990643 -0.06275665782685715 0.9362761156453854 153 112 76
-0.028967932599739794 0.06644789036311892 0.9241844320819381 243 154 42
-0.08050381807092127 -0.13434916861465931 0.8532157885648256 156 113 82
-0.0196473966864187 0.375038309229554 0.9647492315304679 25 15 16
-0.05512489428763434 0.17705482712469642 0.9517585737692262 168 102 71
-0.013216983244648817 0.10868399610559148 0.9446599597558251 237 150 42
-0.1090915647542093 -0.073485317747451 0.8236136883794619 178 132 89
0.008044426178228866 -0.14785078144572109 0.9053823370681284 153 111 76
-0.03240617123057667 -0.022942271296265887 0.9082749987229061 156 115 78
-0.018241477232936818 0.09876727927612201 0.9377913670474609 236 147 42
-0.03535549426223925 -0.023331325657165603 0.9080988452344559 155 115 81
-0.028432264623288298 0.12053474985115684 0.9293672937162447 243 152 41
-0.1583000757482309 -0.03588986641677671 0.8103742909432243 181 133 88
-0.031188472142838455 0.2848209973518472 0.9569997502509755 157 110 76
-0.0450398025861153 -0.020562849706759576 0.9061420171063918 143 106 74
-0.0103042567334383 0.1035963334907178 0.9467027132040794 239 153 46
-0.030044412695741964 0.25761626207179217 0.9524600744570173 157 106 71
0.01636865326895347 -0.011477109560515796 0.9341304601755019 161 120 81
-0.03593010269748293 0.357621832269348 0.9600694478670431 28 19 24
0.04369104680385447 -0.17670687715863048 0.9567067200779081 163 122 84
0.0174012252492945 -0.027117992734639836 0.9307420821002252 140 101 71
0.015020474792015489 0.21050175054574577 1.0507642822617342 142 96 68
0.0070398593827504 -0.1123077751214309 0.9101459783745478 153 114 79
0.006082846586031065 -0.08749599891930494 0.9101722456929228 151 111 77
0.01427275018238851 -0.06094476798081353 0.9289529875497892 161 121 83
-0.06801371515684242 0.06276408929014965 0.9331818555643226 223 132 31
0.004771602943080428 0.1375574135902823 1.0259622289813768 206 115 29
0.030889078608694782 -0.06010003992989755 0.9418165548905935 159 118 80
-0.08269173288958635 0.13719207978406586 0.9615736299388884 235 146 40
0.022476580915223594 -0.0855400430862823 0.9338656035871256 152 111 78
0.030721228120094986 -0.11920817628312404 0.9363415735511017 162 121 82
0.026552101562693733 -0.13198644640090837 0.9342718840810359 160 118 81
-0.13267736704324654 -0.027710696340769947 0.825168924959153 112 94 61
0.02344438804674565 -0.035857411603697674 0.9335174394596231 158 118 81
-0.04627548105340627 -0.16775190792238723 0.8531532463116611 176 131 91
0.00208203874174593 -0.10457840807292904 0.9010818277564915 160 119 80
-0.03737764929364943 -0.03702245324719623 0.9077145459079907 139 100 75
0.019909726293358906 -0.017757809844427562 0.9346700055727708 146 108 74
-0.029485759384431372 0.24941421922139054 0.945336803635924 159 109 76
0.018294264488439776 -0.18688601425625986 0.9243587161366835 159 118 81
-0.04955471606225831 0.20070570492400888 0.9497113881893614 176 112 82
-0.03522486197816409 -0.33509308986078257 0.9038478606603685 45 26 23
0.023534510370103054 -0.10039351713650956 0.9336801403503848 154 112 75
-0.03439918738771536 -0.004943733955545939 0.9116902604780132 159 114 75
-0.11738152248622474 -0.06484202837281958 0.8197815924855951 174 129 89
0.007977214240751491 -0.15248142933729103 0.9004514256143016 154 113 77
-0.07265002726417956 -0.13152887947641126 0.84837400461811 171 126 84
-0.0008091749055781097 -0.007952697432352796 0.9307433121589911 164 120 79
-0.176199727937702 0.003140719999894682 0.7936691108381239 1 128 0
-0.03819330280309977 -0.31203652703600016 0.9058146550977911 78 50 42
-0.09390706731552435 -0.07350097098416232 0.8233892194753845 170 129 89
-0.00800515106023812 -0.30776122025570607 0.9151205478466851 51 30 27
-0.01578184958583887 0.11643177980217476 0.9422527238578108 233 145 42
-0.04689311988726667 0.33421752203728194 0.95806567790904 177 121 86
0.0032559024997394917 0.008145804723734232 0.9342559002871236 168 123 84
-0.020473516365809817 -0.29601047664702546 0.9151438233104189 60 36 31
-0.06911431943795349 -0.19417405303826224 0.872516169499004 170 126 85
-0.011062684186431315 0.058792960528061156 0.9326017832499527 238 153 45
0.01990058154100726 0.31288866653817526 1.0881526275521876 96 59 50
-0.12925516223665245 -0.053050620488636166 0.8151036488992738 154 108 71
-0.011253844329395104 0.10046965965210142 0.945278010279909 237 151 47
0.015294038239479184 -0.1859436505105306 0.9193393707774391 159 118 81
-0.09309001547072478 -0.11018419317175471 0.841401942030864 174 131 92
-0.04642545756307038 -0.32767588067056874 0.9071506340528127 66 41 35
0.00027560305819085754 0.14852976720296207 1.0238612259352728 189 101 29
-0.041159142101238604 -0.3320771828399732 0.9029349494363336 50 29 27
0.010803411905170906 0.3296533776584815 1.0957183870281635 36 25 29
0.017359190438155824 -0.08614488695161387 0.9296723306621609 162 121 81
0.013276018615202627 -0.02832753735562317 0.9312848815719368 143 103 71
-0.07945087829831377 0.13733743722427058 0.9535195159947372 237 143 38
0.028623690024937986 -0.12214233155700807 0.9351540507696371 158 118 81
-0.012777087452508891 0.32904907265229155 1.1190153154666913 28 20 23
-0.03442002755851248 0.36500884210695744 0.9562988397855295 29 18 23
-0.16178401960322392 -0.03334518873276607 0.8094030956999068 197 116 83
0.02654110622614339 0.21737091424355412 1.0512534815519332 156 107 73
-0.03440708671040079 0.3066809181723948 0.9572881534948036 155 110 76
0.009189886522656777 -0.03993487852671151 0.9206297251268736 156 113 78
0.02756392654996814 -0.19154824199616208 0.9324075952775125 158 116 79
0.0031830743028540276 -0.3184316263863787 0.9206051527343404 55 35 31
0.030597381143159293 0.08292951855746883 1.0442712094869417 207 139 40
0.012942913657012806 0.1778129014106867 1.0444222216519974 164 106 82
-0.0271710053381653 0.2639219632285489 0.9602165379697705 156 102 69
-0.029613091015103097 0.30744064500570456 0.9693099219298106 156 110 78
0.0387200701188926 0.012381501453560317 1.0188048162578436 117 178 106
0.03583957273523947 0.14176088340351312 1.0620430508784358 127 140 19
-0.05412982045923909 0.1740452330391317 0.951384173303142 166 107 75
-0.04092758566727452 -0.04190471060995982 0.8987846382103555 145 103 69
-0.046601933642749775 -0.22390517728277812 0.8800629809409468 174 127 88
0.01709153880715823 0.2814907448267105 1.0782143046187722 150 103 78
-0.045092102938655225 -0.021230240344501067 0.9046553359370079 143 106 74
-0.03307980956950438 0.15845358128718062 0.9316777145914628 250 159 47
-0.04366832770322622 -0.040084243287818754 0.8989608057413919 148 107 74
-0.022181057788562893 -0.08150390979083487 0.8935642499845514 137 99 69
-0.006662445384984071 -0.08459975745065117 0.894902566105569 163 123 85
-0.02218164670911558 0.09647274972300457 0.933626649957638 240 149 40
0.016238083114940287 -0.04143625377990348 0.9262733805931928 146 109 76
-0.113673188725198 -0.054474854966222785 0.8186207240290356 178 131 89
-0.07360567473380145 0.13704747178758203 0.94525333661861 192 116 39
-0.16628639240722895 -0.025209075219660506 0.8037196791163546 199 113 87
-0.0020790549928836207 0.003297314301080265 0.9284434773022575 170 127 87
-0.013077379981386559 0.1256073459402607 0.9495699053808405 228 143 44
0.04041133329939706 -0.1340762754816513 0.9481197876583026 156 116 80
-0.08652063961101916 0.3460522959385271 0.9802420933550553 6 91 5
-0.06861466333114095 -0.14634506742951728 0.8541074052158865 182 134 92
-0.0249315757176556 -0.27725697591504644 0.9219256974456915 153 97 65
-0.018210040989888657 -0.0954342006513439 0.889490678233749 135 96 67
0.023958590776861015 0.14959356951197353 1.0392596173821513 245 153 41
-0.044020208283867476 -0.013630325079846014 0.9071669888914492 126 90 64
0.009539364134420752 0.007382250377317466 0.9370508235023682 173 128 87
-0.13376105992375012 -0.052756323870888834 0.8199696120911211 147 102 71
-0.008162323740760686 -0.35956411030824137 0.9186541641028635 7 67 5
-0.008180809909826718 -0.3089026212703701 0.9136968738521141 51 31 31
0.03303059143655108 -0.18695238720156934 0.9436026203462233 160 119 83
-0.0640777399550046 -0.16660266334937487 0.857322440358224 168 123 86
0.03597528667668659 -0.16369514782360603 0.9409407933333847 162 120 81
0.03643673093370006 0.35492036166472435 1.0734593115819115 20 13 14
0.03941304231035363 -0.18672781969297855 0.9490867602702967 159 119 82
-0.042915372495038635 0.06572789086705609 0.9225756227485209 233 142 38
0.011270835680914016 -0.05946309433447487 0.925742332904095 159 118 82
-0.010499016608195489 -0.09841909606567532 0.8911826708047564 151 111 78
-0.0036875473295160176 -0.10566448315581503 0.8942092410180369 161 121 83
-0.027038605082096705 0.09504653842666584 0.9282704228019114 234 144 38
0.010218577506329159 -0.016667490032790194 0.9327180205011667 149 112 79
0.00122888360691757 0.0642354886459803 0.9468561999770476 221 142 49
0.02761524958642604 -0.16658318462267963 0.9349356921824609 160 118 79
-0.06898917192807472 -0.012784255414567056 0.9117470967815273 129 95 71
-0.007584736115877286 -0.3202765941538572 0.9008023185197778 60 38 36
-0.00438461929492518 -0.27383739942918817 0.938404695736291 149 87 54
0.028635905152367525 -0.12952006133973365 0.9356601345266501 162 120 81
0.02456936715046033 -0.09734835324910203 0.9344382518793658 153 113 77
-0.010754622346716236 -0.3297991377229499 0.9031407721753024 62 39 35
0.0031661249186523245 0.01009670063752257 0.9321751236907827 153 130 108
-0.08449306350375724 -0.00013568422591018608 0.9258133378021035 148 107 73
0.03711487590130681 -0.09340147454679193 0.9457692250832845 152 113 78
0.03709203535425476 -0.1823356080149534 0.943141997775688 161 120 81
-0.066181932320414 0.0024563230972449415 0.9207275131347467 146 105 70
-0.1727577275977109 -0.012691154757676964 0.7938531365748372 157 102 80
-0.04512196433560907 -0.027980101615603176 0.9083649491798758 148 108 72
-0.0036668051868933666 -0.11298912278948664 0.8923809347895003 161 120 81
-0.043738216702229465 -0.2252124849867112 0.8798247592968431 173 123 84
-0.029491618795845467 0.1733941808796258 0.9412122586542137 166 105 78
-0.06720334643652072 -0.1377256804329536 0.8487381541451782 179 133 89
-0.02636350271169633 0.15902839957890247 0.9389748250453878 239 147 38
0.013273043724887744 -0.07079262551291007 0.9270618888646552 162 122 85
-0.035649470240056255 0.3000505257825812 0.9576161538463278 151 103 70
0.0021627744353147366 -0.1253103208878536 0.8992356777341138 158 117 80
-0.018269241665438706 -0.08803621490739665 0.8925022284580056 138 100 70
-0.04442757465308121 0.0006716148339037709 0.9133237643887478 161 114 72
-0.068842973735855 -0.002798727943927315 0.9149760828085394 147 106 71
-0.06942660620338212 -0.14377090940232204 0.8532529761593856 178 134 94
0.013708487560672562 0.143142437358068 1.0322400164706569 214 127 34
-0.06810125531753541 0.14437855590176235 0.9435536199984645 208 123 34
-0.014256722157235344 0.07035156209259731 0.9418422586493157 224 139 41
-0.04194225292297744 0.1757268091876645 0.943217850773833 173 115 83
-0.04248090794815595 0.030158246972080856 0.9153854943066939 254 242 233
-0.01832056903465425 -0.2425782327073974 0.8999310688103614 171 125 88
0.04377694154294696 -0.15059421722147281 0.9542265285417985 157 118 81
0.012227014959164036 0.29353040543652387 1.0812645400613436 170 119 89
-0.06764517851919377 -0.15679208096992608 0.8538009095954544 142 97 67
-0.13693727928968505 -0.06198573425357688 0.8247070117218779 165 121 82
-0.1061905227836939 -0.07343714687805412 0.8223219992819772 172 128 90
-0.024121519092433454 0.2080470124393966 0.9464565682924377 181 117 81
-0.04172134397703233 0.29554700132444284 0.9645848139526122 151 95 69
0.00984844848752992 0.32077900753948363 1.0903574843315817 9 4 9
0.029666456594486787 -0.13051763677201098 0.9361031632774699 163 119 78
-0.037542235899644595 0.031657243002353806 0.9153704904072416 246 227 210
0.04891327122095084 -0.19352257016004212 0.9740736910562513 156 113 76
0.0186975645627298 0.20039295201564508 1.0470251166068696 160 105 75
-0.02912334783280431 0.12523646738719196 0.9287120164931387 244 155 43
0.04523904182997804 -0.13886905726840068 0.9609932356743542 157 117 83
-0.07605907484307504 -0.15132921875761604 0.8550607950557665 155 110 80
-0.012261412439568168 0.0962353241728565 0.9434740929749382 236 149 45
0.010759019000315388 0.09411997544615264 1.0081568664010447 208 124 34
0.028897384658697373 0.23693059457144044 1.0647836309460752 141 97 68
0.022057513289653368 0.3350814364456081 1.087272201225525 35 25 29
0.0027986779411588456 0.18434326721321037 1.0405378324593424 143 95 72
-0.03650031828931896 0.27997683312103433 0.9528100572259869 157 105 73
-0.05450362760131147 -0.04184240122132508 0.8976192950265969 121 83 59
-0.031134287368599623 0.08814898978038523 0.9248423264823918 239 149 43
0.032779733696113075 -0.14900436331674644 0.9382421388518049 159 119 80
0.022369598523018647 -0.1416849272597251 0.9291801618478136 160 118 80
0.031641057965811216 -0.15740094951617956 0.9348005365053996 159 119 83
0.03704149267828433 -0.1485393475485572 0.9420520101723838 160 118 81
-0.038599050912026006 0.0020193861531037183 0.9160687390325888 164 120 79
-0.034514942209583156 0.042240774274277394 0.9185635365420233 247 230 218
-0.010352235069178867 0.047231057219193476 0.9363153702242976 236 217 201
-0.04013293113879316 0.17967792459172838 0.9456635828844626 177 116 83
-0.031904840251666323 0.07153234739054669 0.9239226912032279 250 160 44
-0.03518960653417373 0.029775154536228685 0.9150281724718119 250 232 219
-0.16941264272931145 -0.03585801477455932 0.8083276535526936 201 110 89
0.04381312307333026 -0.14633520741235903 0.9559612121817492 156 116 81
-0.001359234697367966 0.04530749419135806 0.9423190765326733 220 199 179
-0.01579292083362392 -0.00016996037660146055 0.9235279203105742 169 126 86
-0.07019913097778648 0.012376646334366736 0.9230694839872785 150 109 75
-0.034196925954955694 0.16660900867118403 0.9353502537024247 140 73 48
-0.02633037605217301 0.12777597696121687 0.9327959429627819 238 148 41
-0.013782518778407823 0.3478726143918279 0.9741687205561802 13 16 12
-0.06958073813008349 0.08174412663353023 0.9420025489825978 236 202 159
