ply
format ascii 1.0
element vertex 679
property float x
property float y
property float z
property uchar red
property uchar green
property uchar blue
end_header
0.05088236962879448 0.21892637237244084 1.0011428582217066 166 117 84
-0.007293403823532403 -0.009064980915352018 0.9327247559336389 162 117 79
-0.0952478602868154 0.3036429915434431 1.0721686150872325 61 43 45
-0.020800344934479718 -0.13119741595733808 0.9110183738575713 157 115 78
-0.07704386559573706 0.29936998505476176 1.0323922285950293 20 12 14
-0.03396926657758169 -0.03487366467933072 0.9232217045071344 159 119 81
0.008333114613545514 0.026459127566300533 1.0179738856285496 210 118 31
0.11105119135778918 -0.06204577851302735 0.9489940908877554 132 97 71
0.044332382269562376 -0.0159239586187519 1.0030629711512855 149 109 78
0.006379270684080578 -0.28116441937103404 0.9248251488804481 72 48 41
0.04723546359909965 0.3174309993940778 1.031085184089949 24 16 27
-0.059885205478450144 0.0786608376820605 0.968242233729401 234 148 45
0.1475084732427182 -0.014519375493453113 0.9582575491871484 39 117 23
-0.10052505397013384 -0.13366881095598682 0.9414774848400667 130 95 71
-0.10226250664215442 0.2923224018894784 1.0314863336198445 44 31 35
-0.0667233955663898 -0.2144743600922323 0.9268560061319996 163 119 83
0.09618254905621182 -0.056510572898117006 0.949041554839802 104 71 52
-0.17346311766093336 -0.06557265928723716 1.0061437020611206 109 79 58
-0.04806468600630162 0.09509973379323822 1.0305016257719977 220 127 30
-0.04128396095667068 -0.10484732177432457 0.9218740918288529 155 113 76
0.059387302084961326 -0.015511827020558755 0.9888340730046258 152 113 79
0.01695284453340205 -0.01003365038976022 0.9371641121853204 156 114 76
-0.07640712066636343 0.20988624675875808 1.0225559449432622 151 106 79
-0.07881008031667983 0.32519994504482935 0.9971976581113382 0 128 0
-0.09451883941459381 0.30181242015150883 1.0688826255993842 67 49 48
-0.02253863666866688 -0.30416027153239983 0.9104112342009 70 43 35
-0.019193834286339855 0.09441690678811188 1.0227765791057055 154 79 17
0.05818181351101053 -0.17953532094160207 0.918775421591215 159 117 80
0.102782841984765 -0.07817218206893636 0.9523050637385777 158 115 78
0.0551422326241834 0.08012959567089678 0.9920205674762586 234 137 41
0.02899575361536129 0.2504942755615083 1.0036871714676237 74 114 40
-0.07810440284822803 0.10456376281314018 0.9763442288431042 233 143 38
0.024665472401410683 0.052581107408625705 1.0196818506101764 242 149 41
0.06450841651789015 -0.09065185660059695 0.9403017270830252 106 72 53
0.09755778433953444 -0.09492900557519707 0.9421500108503847 149 108 73
-0.0798056610657534 0.11261637590344109 0.9786247355736216 235 148 44
-0.08541793322211147 0.19452866876567804 0.9954943164876505 179 119 88
-0.016022506684599334 -0.28647920717934217 0.9095399003834514 60 39 34
-0.05265392273383186 0.1428662043480372 1.030790787900226 141 107 97
-0.17627575997066883 -0.10323402796011974 0.9976176875524019 7 128 3
-0.025849306104997423 0.031082288191009055 1.0212540564300092 201 111 24
-0.016564313383286344 -0.1687504614381822 0.906993461056878 161 117 79
-0.05748799345191531 0.2050666457874456 1.0075739113040063 157 111 81
-0.021497588726564983 0.015423199417756075 0.9422492600531878 242 226 218
0.1083043595434923 -0.06952822173806389 0.9558771350420279 140 100 72
-0.058445524569506184 -0.012562730414837886 0.9375860148268121 162 118 80
0.04583185055654877 -0.15288273271662933 0.9601082558084273 151 109 75
-0.030281530097131054 -0.0513251190573278 0.9225087352849053 158 116 79
0.13437807723018674 -0.03606998903976821 0.96650567634499 103 69 50
-0.07877710167130482 0.2061191248608373 0.9877838432550551 152 101 68
0.102964251485124 -0.0636718638918542 0.9551372473217566 130 93 67
0.019810534261572324 0.028377497457885825 0.9480952015430258 254 246 240
-0.000953083963865356 -0.3178195816468597 0.9354227323622661 0 123 0
-0.06490506461069898 -0.1292561676215786 0.920595125455104 156 117 80
0.006513874639291102 0.10490115451352366 1.025754153797748 190 104 26
0.09574822219654701 -0.0585684805476744 0.9553677219521206 114 83 62
0.10840966012064997 -0.062260037160456416 0.9571933362030096 130 92 65
0.06253499796350037 -0.16453829408211906 0.9189647557192109 165 121 83
0.06181495798214512 0.30790903232855205 1.0509026461084967 65 47 48
-0.0933802110891582 -0.19848721804516242 0.9299293733709982 168 126 88
-0.08703432197468247 0.30393747725731185 1.0598264117208993 47 36 42
-0.017318921469902153 -0.15566899305239335 0.9078564050419797 161 120 84
-0.07724333591320973 0.14302527360122586 1.0053905696467507 109 174 99
5.73857747048657e-05 -0.24351757922454817 0.9379358439358464 180 109 69
0.012067317931524983 0.12128085895550411 1.0333582677391857 240 224 214
-0.058869562509619104 0.025188360352536826 0.9490448650134942 255 250 245
0.04123034388789949 0.05404578791864956 1.0106463788371627 243 152 41
0.023995733969135288 0.027192994586290063 0.948812218353861 254 245 242
0.01548560516181551 -0.009044087220953623 1.0174007784140946 159 118 81
-0.0805971490416416 0.15022216572318117 0.9920946948542965 183 117 84
-0.07668828519360632 0.18978622214906105 1.004341445945169 178 123 89
0.025071380455360073 0.10391654364404551 0.9677159146169362 235 147 40
-0.10947089134120805 0.31135409538034664 1.0910002189727914 17 10 15
-0.023166646007907167 -0.11376511035228942 0.9146118597778885 162 121 84
-0.056418881701526175 0.15971727350170328 1.009314414994766 122 71 48
-0.023495514766184448 -0.1820832237394868 0.909115158096701 160 119 82
0.08814041859955568 -0.11097162383874559 0.9375614322517324 127 87 61
-0.07881600731678336 -0.13781951816828641 0.9299777577381594 137 96 65
0.02119506179872526 0.1109006584335287 1.02993263761541 235 149 46
-0.0666478643007903 0.31203791876195675 1.0047074464077463 16 10 13
-0.011950683351928334 0.06880371692333836 1.0132864395231964 149 76 17
0.004889011173475397 -0.31193677086469757 0.9248312685025109 20 11 13
-0.09588608139772042 0.29073687701042333 1.0514640662959345 8 3 7
-0.01603215706988387 0.11693160320566522 1.0278166104784143 0 128 0
0.1392641032883548 -0.04615710751946228 0.9686958969096067 150 109 77
0.03437004654655949 -0.10908400162675772 0.9260423491751065 148 111 78
0.08795079847027842 -0.09206690822305927 0.9467608632394737 159 117 81
-0.056617635681125704 0.20924646657122734 1.001927609827715 71 106 37
-0.07524381009754101 0.3095828964913685 1.0337945524212842 23 13 16
-0.0003933903452246349 0.12641083322237373 0.9923423234840665 190 102 27
0.05473264561911881 0.1896428958805314 0.9913091896346294 183 130 91
-0.0415702208113297 0.06938726600702015 0.9629729573014885 213 135 46
0.10182573589563737 -0.051183788454291224 0.9507960629492095 110 75 53
-0.011820229867635612 -0.10228958195507959 0.9126939014055405 156 115 80
0.11397948144251632 -0.0728343700846596 0.9537326715336509 164 121 82
0.048478459574547425 0.07380708164820586 0.9760517223674416 230 138 34
-0.007463754088838273 -0.04412655592873416 1.0183532214963023 247 232 222
0.10362722645274992 -0.06929602089885484 0.9460226558298015 142 104 72
0.1296914016214203 -0.030609886299200223 0.9604503600956138 110 80 61
-0.08364583918394117 -0.08432436223249735 0.9422086800370331 147 107 74
0.04556826706064901 0.2821493941253821 1.0063786897001692 178 120 91
-0.10123398677287387 -0.16380408983172307 0.9285289978148763 144 108 77
-0.04823304365396289 0.19119443921053325 0.9974073161644496 141 98 71
0.008891340925384149 -0.13829428601630245 0.9072900989676195 153 113 80
0.010220090478252626 0.11052532755889799 1.030846063109733 234 141 37
-0.037850668842384576 0.04161919835566349 0.9524018615300146 211 134 44
0.05919592123272246 -0.03376119599803751 0.9865909932833418 150 111 78
0.16112914216006483 -0.02790475377801293 0.9792353114171435 177 120 91
0.0771808642772925 -0.07488136260664352 0.9459711963292747 111 79 58
0.04438127806094048 -0.1305135006558217 0.9212186808061356 130 93 65
-0.06468537789210424 0.18357806983673863 1.007936659846604 143 90 65
-0.059381008524922306 -0.13621097476209812 0.9177980408350099 152 111 75
-0.0805927031179267 0.30112574182717666 1.0363981127425292 20 14 20
-0.1100459481854858 -0.12683661211735114 0.9436861165642132 125 91 66
0.049467615022798346 -0.09862742385221523 0.9798806681411134 157 115 79
-0.004420048990769634 -0.0018988271222455052 0.9342560690907775 167 122 82
0.151140209412697 -0.01301551412620855 0.9597924748597484 80 93 37
0.02649337883336714 0.18775282697952708 0.9775732951437551 169 114 81
-0.08468393494628859 0.2609043876556404 1.025324397321491 179 121 89
-0.066742959664862 -0.21556790276308094 0.9272697244713799 164 121 82
0.027008430944028775 0.2426414475437365 1.0033269949805599 70 112 35
-0.051611742619663115 0.1655623189603224 0.9957583616117821 153 95 75
0.033777303263230446 0.04504566823724243 1.0140265474852708 245 151 38
0.028432726273048933 -0.020316227846159912 0.9379144889477442 137 103 77
0.02789143730038735 0.24577509103975761 1.0039852922300014 79 112 40
-0.06429974267430494 0.025062722560073265 0.9519370121221319 255 251 245
0.04198041547268648 0.14008302473271522 1.0148113196247777 251 237 229
-0.008262918602690949 -0.28766951645738775 0.9128361216643075 54 35 31
0.1696319409975982 -0.002960518449064642 0.9652882562126386 136 93 68
0.04177448193233561 0.1365412679037961 0.9773841950071364 197 119 46
-0.061342872486201475 0.2143121695284539 1.0103147545644369 153 109 82
-0.07843872927520168 0.05512401406834129 0.9734596978400739 243 154 44
0.09980752690795323 -0.0551012043282226 0.9511452680128308 110 75 52
-0.02192138049130717 -0.0051816287152351825 0.9324276519405628 168 121 80
-0.07551161346543911 0.11206541269411724 1.0148831706394574 243 151 42
-0.045081139405360696 0.07327024086978785 0.9633585648904346 218 137 42
0.019316793470464038 0.18713212193352516 1.0026674314586905 163 111 80
-0.05471407949682384 -0.17618163473345919 0.9121926731308244 168 124 85
0.015484233100709796 0.17362513343819655 0.9918991312601427 104 105 52
0.05876767472388726 0.09359863030272501 0.9960591101221837 215 159 62
0.02830446195090644 0.04961187408898676 1.0173210253222909 232 139 37
-0.09660696977714303 -0.06538648989333438 0.9897166283937675 124 89 63
-0.04862131415433614 0.14071445113999187 1.035119370869059 233 226 223
0.04423225200042674 0.2297088979222195 0.9906150393993433 150 98 67
0.04058169770319027 0.16420798682928556 1.003711712402012 121 73 51
0.04523027801498598 -0.05857279404002354 0.9550658758421258 124 86 61
-0.00825459350545054 0.06312421150642689 1.0127675879438496 140 68 17
0.016308811951806765 0.022290131318776364 0.9464018194309968 247 234 226
0.022956893841953464 0.08725905788782545 1.0253482221063415 227 139 38
-0.04202942879736861 -0.20992353014552645 0.9146195106185531 165 122 83
0.03717116941452773 0.20997285015552503 1.0017682983501839 160 115 86
0.041149058669194515 -0.05110483147245727 0.9403097262756838 141 103 71
0.05697237775421734 -0.17589749676599267 0.9439545196010917 163 119 81
0.13713948764400963 -0.05731527289825973 0.9607828416396618 155 117 82
-0.05723203830060006 0.18860724070989676 1.006392334731094 132 85 64
-0.04018596724867775 0.033000795378153036 0.9442373328669 255 255 255
0.1902684740444747 0.0023138817410041645 0.9670810724775105 132 56 53
-0.012206498377291498 0.008670245345712832 0.9374200029795599 230 215 204
0.0151854288520658 0.18320799557240536 0.9916602960801614 76 115 36
-0.005577063087545306 -0.29281707663949846 0.9127943846366986 54 33 29
0.09732441615338294 -0.07258539398525082 0.9526937354405729 151 111 77
-0.038577822064133925 0.06678729012445686 0.9630767355561841 208 131 44
-0.11269902869554779 0.303241116310654 1.0834764802149277 63 47 48
-0.10814280000377491 -0.12165694986545797 0.9498991524136724 114 84 63
-0.07878823309667005 0.18693830573747716 1.0016778037488105 182 125 92
0.06723612261408647 -0.11117997655430313 0.9217475871622751 128 89 65
0.1324179865688178 -0.03979040724583813 0.9661496319802788 112 76 54
0.02912725692304164 0.053364691716525935 0.9587765876090881 228 144 40
-0.05480083700728486 0.16695365649981442 1.007390041720178 122 75 54
-0.03938190846196164 -0.23516749889989236 0.933045880780714 159 110 75
0.17997562935257364 -0.008058272099429276 0.9692674303769977 171 100 79
0.015788254341522565 0.07970727081503977 0.9611692796995124 224 140 40
0.03782129513850131 0.2879370472656253 1.0009315909214194 176 116 92
-0.04983391997442196 -0.175036534994485 0.9144503364712264 159 119 83
-0.08472395064739684 0.3227690677357533 1.05932064143781 135 112 104
-0.13616225556386125 -0.08927206196879611 0.9609518269070462 110 79 60
-0.09344347551724223 0.21219317377297947 1.012352201844264 78 111 35
-0.02242316153993343 0.002855989944022514 0.9356647815446271 167 124 86
0.01976441818234309 0.21807997038714338 0.9832851864437475 12 125 7
-0.07155206488780318 0.29498993114121425 1.0029841306898941 16 11 13
-0.10152272731339927 0.2918798335137973 1.0291599339247244 49 40 38
0.045109532748441615 -0.18866864646307413 0.9144043438887798 152 107 73
0.08220905877665804 0.3074109676004224 1.0289887489286342 0 128 0
-0.12933693184939563 -0.0966302014060146 0.9568547374145744 120 86 61
0.0488590192031009 0.0623070497446328 1.0043604897880485 239 152 43
-0.044783507098690986 0.11702559022742771 0.981570291659362 208 124 33
0.04678283037779459 0.04106273853347481 1.003700750299569 242 154 46
-0.03346011063740317 -0.20249102485463774 0.9117800384102477 154 114 80
0.023026203211555307 0.10945282087354796 1.0287365294285915 240 150 44
0.012991074811629791 0.02821539988462162 0.9464598587933069 254 245 243
-0.06364307112289845 0.28435130887868687 1.0003642555610879 25 5 14
-0.06895745064650775 -0.05098234777988286 0.9341259859789066 150 112 81
-0.09087425403777977 0.2957636787116369 1.0583210668730283 23 14 18
-0.06762756085961753 -0.14273199846213444 0.9185589398000366 158 118 80
-0.11155773794241731 0.2973409802641874 1.0529077241159652 64 48 51
-0.037646680646992434 -0.27822321169652275 0.9207072785986596 53 33 29
0.03939471135964281 0.05903800346583438 1.0128710215804397 248 158 43
0.10114810350476049 -0.05245163495598018 0.9615158035446805 116 84 62
0.11447441517072389 -0.04530349738222092 0.9579440297443192 120 86 62
-0.09070302699793437 -0.20159399615864002 0.9322747326924712 166 122 83
0.1324179865688178 -0.03979040724583813 0.9661496319802788 120 83 59
-0.12356267331594324 -0.11607186487818595 0.9447750327056287 118 83 57
0.020992676951955263 0.3109347321643961 0.9999094537583039 0 127 0
-0.007360464110623728 -0.10359852388647126 0.9123313126814268 155 116 78
0.06362532448606445 0.3084752366186706 1.053213273915763 57 41 46
-0.043551429983974405 -0.1363162675134946 0.9180702510699902 147 108 75
0.055174866750898895 0.2422187947739678 0.9987106240681431 161 111 81
-0.06293080128268813 0.09987237993923355 0.9721123168001623 231 144 41
0.010217568066939967 0.10871402174842909 1.0304706126278764 234 139 36
0.02937990681595096 0.20594394918344813 0.9808955555829718 154 106 71
0.0526918001861535 0.0601451751211356 0.9997163373872248 241 151 41
0.04747089563861437 0.07076933936141706 0.9752709134789784 243 151 41
0.20280239815831705 0.0013884608430464462 0.9700136837755735 154 77 61
0.05604521933208801 -0.05567006432786985 0.9748510139566712 105 72 53
0.06819206368688396 0.29999231987473424 1.067863921015657 60 44 49
0.04426806976789929 -0.13668858970899359 0.9179234885467605 130 91 65
-0.08711912855167123 0.3027453527337549 1.0583687237139303 52 39 43
-0.02616292034597211 -0.18255776487608882 0.9100095950949494 159 117 81
0.11423014572402176 -0.07759201854824799 0.9495523104271006 166 124 89
-0.0571335164229779 -0.15241493355265623 0.9147196751326888 152 111 76
0.032258023128566286 0.1526195731574045 1.0137238824261392 125 74 56
0.04869928503223825 0.20861898197010678 0.9865195937370599 158 106 73
0.03476048733788732 0.15859758082566144 1.006610563163492 128 78 55
-0.06267010498788445 0.0007588329250993002 0.9467804324214105 172 126 86
0.04437207193383581 -0.008837498582561443 1.0044383876702305 147 108 75
0.024834195767284455 -0.04581673660925469 0.9270776896791872 152 113 78
-0.06320517463262444 0.2755597123540966 1.0035609624213255 77 117 42
-0.013988633632507614 -0.255806785214313 0.9221110899273195 56 34 27
0.028600082405821087 0.11689683795373701 1.0254802113470718 235 216 200
0.16892060333167444 -0.03158781954221792 0.978725704052739 173 112 84
0.03203794176088403 0.2196256730408548 1.0125401586942073 149 102 77
-0.04495788885153602 -0.07552355306817125 0.9260804946980813 159 119 83
-0.0755242910960925 0.21328845773700175 1.0220493703328286 148 100 75
-0.057337171649412065 -0.10028709723528562 0.9241989162320176 150 111 78
0.06666125280835877 0.29867172963220456 1.0254934050461937 40 33 34
-0.008514816335975737 -0.023764732293173125 0.9284078521709057 123 87 60
0.011971496303387856 0.04588408342889405 1.0222285831979456 241 149 40
0.020608762314164062 -0.09659919872895026 0.9182794335126102 152 111 74
0.053490602840171486 0.27889386085647627 1.0043545216660292 145 85 74
-0.08046177714457425 -0.1577752997920088 0.9266023601278865 147 109 77
-0.1044745472776067 0.30310493485268825 1.0798971782741547 73 54 55
0.034156732617844424 0.11608279471239029 0.9709544575020689 241 148 38
-0.011879472147403473 0.060801444284457495 1.0137434891068071 183 98 25
-0.014500845094050878 -0.01878878647501868 0.9297468710588038 134 97 68
-0.10239939639030145 0.2927475634944676 1.0324556167469112 30 19 25
0.005315287492497629 -0.2692873731017347 0.9300096579415073 82 54 45
-0.07399420152575827 0.19839797997610212 1.0228687564151935 155 106 79
-0.034667127450970496 0.023577887072430682 0.9415254448419385 252 239 230
0.09970089941012851 -0.0978673163507422 0.9378278772156952 160 117 78
0.04012502099087587 0.25477406852583834 1.0003823673313217 137 87 67
0.10526870300865476 -0.05199369433494397 0.9540984553715947 110 78 55
-0.004903867719226564 -0.27145215612731843 0.9191010887551473 46 26 24
0.11030147077506494 -0.05867466359640755 0.9580696517563937 132 96 68
-0.07435788429094357 -0.19833226872248969 0.9203375118046545 166 120 82
-0.05373698381898581 0.10146419413950192 1.029515711575805 207 117 24
0.051872928065145214 0.07658643348736609 0.9844519007852063 225 130 29
-0.0869225800961093 0.1710230743198237 1.004535669766768 190 124 93
0.06343650591311996 -0.07853826091449696 0.9795230701920632 8 125 4
-0.08597828249171764 0.16116821182396543 0.9999265411182929 92 120 43
0.023613020302007928 0.1476078400131547 0.9780459453428662 173 120 88
0.0495340869024178 0.2752147021313571 1.0030989017771097 181 119 87
0.09898851305198526 -0.09219649798931391 0.9346686725851389 156 114 78
0.1600166738866489 -0.03670636288194773 0.9687546597826553 166 115 84
0.06539303159441907 -0.12252594933593212 0.917428995684965 140 100 70
0.04361724677267388 0.27368260469699 1.0020142911683891 181 122 94
-0.09324827810919621 -0.20866769056745513 0.9421300747198764 172 124 85
-0.09208188406448152 0.19160299646790674 1.0079182426360733 159 111 75
-0.07896037852797247 0.18947021103519476 0.9829957336403493 164 106 74
0.011967219665380828 0.04223230261311017 1.0217567270480818 235 145 36
-0.06974938702882581 -0.019469194314613743 0.9464284843547569 140 105 76
0.21290946288075582 -0.005491511430352203 0.9734271946307262 110 126 46
-0.0508183144048248 -0.0610544986932805 0.9291572610189871 155 113 76
0.024207482694510136 -0.08419725832796976 0.9973996245667522 106 71 51
0.026128906508602532 -0.17375616092708435 0.9050566728489997 157 116 80
0.17825412158001225 -0.02489865952566922 0.9743167980459662 168 111 86
-0.011884196480959163 -0.22274416311104797 0.9188507822276595 158 115 82
-0.07482435789276426 0.2160067300400278 1.0112481779233016 156 110 78
0.02948245127813513 0.0028275454920660492 0.949205741281684 165 121 81
0.04062699984519324 -0.023624050448400546 1.0038758784541262 148 108 74
-0.05278079543341021 -0.22634851326301633 0.9288299683863095 170 123 84
0.04541772776520904 0.3112815788651603 1.0236760328645234 43 28 33
-0.05649873128125163 -0.09765002592458004 0.9247408690544746 142 103 72
-0.08312029922810378 0.19658286223172583 0.9996891069131594 179 123 92
-0.06072093725651015 0.010117822777551504 0.9492502529539334 255 247 238
-0.11304904264540351 0.29953255019477 1.0582849714661338 55 42 43
0.04566010162224732 -0.1521201424579504 0.9132275070146452 134 95 66
0.08646081913639526 0.31035268940545424 1.053467602149019 64 45 49
-0.07888529517426632 0.08450698643949811 0.9750241185056095 234 144 37
-0.07588627708842022 0.18869598274592 1.02064550006774 161 109 80
0.059489738128962105 0.11110838977195751 0.993036503252748 14 129 3
0.0842004283749619 -0.0991591910484523 0.9446526501789889 137 97 68
0.02648386862757976 0.2007283438709124 0.9797221765816935 156 103 70
-0.008557607922723892 0.10370275938848345 1.0105082149178048 0 129 0
0.00231948554124062 -0.03506134110184525 0.9262949633232775 153 115 80
0.055055889206936964 0.10132153127919191 1.0015478648909086 169 96 26
0.010891159806015845 -0.18752485271994943 0.9047007082500338 160 118 79
0.03240143564104589 0.13313299921474797 1.0251260436981902 249 228 207
0.03639709431864425 0.09703259745594209 0.9710822171314866 234 139 29
0.04358724157114498 0.31232517701646056 1.0188559207533214 41 28 32
0.04462129849481795 -0.022281928368992673 0.961519665529806 147 110 78
-0.09899958202763234 0.30490184295413375 1.0798177114787337 48 35 36
-0.028993519869354747 -0.1753738005655505 0.9109085533957024 160 118 81
0.04882472631928799 0.05852291458643788 1.0039819419668792 244 154 42
0.01038489945134787 -0.03697228684405482 0.9254408641757862 158 116 79
0.028650297693214408 0.1299148831611977 1.0276703901281468 245 232 223
0.030843725374261846 0.08346194683696934 0.9653075809493357 231 144 42
0.1485546342671222 -0.01973242994047325 0.9629306068778046 116 79 55
0.07192794613681526 -0.07929702458448433 0.9493547135653622 3 126 1
-0.09875252524018785 0.2930724424702183 1.053848630700985 12 6 10
-0.018427142579337974 -0.050646386724930804 0.9213181449136996 151 111 77
-0.09198898072631928 0.2437514153927633 1.0142498511905254 80 115 37
0.012003008802669577 -0.13231274170338256 0.9096195535583427 146 107 75
-0.07809809782674981 0.15674648012542872 1.0129858423148277 147 88 62
-0.0234173288134702 -0.0875956920341418 0.9164963774517879 163 121 83
0.006507856058507219 0.11647796960258816 1.0265715362803736 207 185 159
0.010035394507853783 -0.07066773590628914 0.9198478524593616 155 115 80
0.041545013649490564 0.10759038337138122 1.0194461929845464 228 137 35
-0.044928715724952474 -0.05980031049140422 0.9268482616101018 161 121 82
-0.08473678148575438 0.24722846451342445 1.0206869969494583 155 101 75
0.0148092633326951 0.01434560000078394 0.9452966121099594 251 237 227
-0.07099463047970601 0.14758763200243935 1.012996397503473 148 84 58
0.032497971301261454 -0.09014316324948586 0.924961439571321 139 100 71
0.051243712201575226 0.24761025699653616 1.0008419206418664 152 106 81
-0.0727228231056427 -0.20156709920435073 0.921717278444956 165 120 81
0.05531125528333649 -0.045423713839471996 0.9882546160192835 161 119 80
-0.005325968950636635 -0.20227386630848435 0.9084248358856424 162 119 83
0.15288713456994407 -0.02742639549554121 0.9697986636289347 131 89 58
-0.011873132509839809 -0.22722299799958556 0.923661088596574 147 98 71
0.1240142276685355 -0.03604505116269374 0.9591979486507874 103 72 53
-0.04868350984517019 0.10550775380586827 0.9727042316489345 222 141 45
0.03952245997987345 0.08452562553907111 1.0177156695823633 146 80 26
0.0154759502959663 -0.20802150522381846 0.9115731694179808 168 123 84
0.053139555130093795 -0.09995571825166444 0.9774083673240985 162 119 79
0.06198318064882429 -0.05662612011993738 0.9808456568817959 103 84 53
-0.06542104784211816 0.19547341033915705 1.0175884036560252 154 110 78
-0.011861573154061491 -0.10788620897976668 0.911827824700726 157 118 82
0.011981674379904807 0.05308499570358477 1.023480854583098 235 145 41
0.029470459572388162 0.16107157417595 0.9779498766612269 183 126 85
0.03911481190943554 0.21178787298734736 1.0023772010999838 158 111 80
-0.08468600763949537 -0.030521309576853138 0.9557157326359167 151 113 79
0.03933411477560657 0.048077953916376315 1.0110380180457355 243 152 39
0.20624554264397948 -0.017814544001736373 0.9915499593951982 154 136 81
0.04380128692019295 0.13238837537048814 1.013787884569647 237 223 217
-0.028643761144835307 -0.032776259947509816 0.9231554438828534 153 115 80
0.049178011191288284 0.24060488873493668 1.001508247065007 149 99 75
-0.07007789090291781 0.13371154324093076 0.9819303726693585 244 152 40
-0.11929431784811184 0.31762566538541903 1.069722237614096 12 42 14
-0.10568116979956366 0.302592151302731 1.032079052360604 14 10 12
0.006488930855973907 0.07393306228483709 1.0198487783035546 195 103 25
-0.04439105768887097 -0.031549026747986146 0.9276787378348756 145 107 76
0.05344046257947441 0.2636452296503171 1.000047263073112 176 120 88
0.02893125946232908 0.12772694923445496 0.9736103256833061 233 145 35
0.04323783478153287 0.08170579572211589 1.0149860059760392 252 157 40
0.0326349060101419 0.18718168766634227 0.9772409196071603 170 112 77
-0.019879400498652788 0.11413202361354377 0.9950600558761562 146 98 49
-0.04884260403664176 -0.28743649375726094 0.9376983871111331 73 57 40
0.008370920898540985 0.10768207216899173 1.0283842688044902 224 133 35
0.006833475678225614 0.09887098229035848 0.9705742328445573 211 124 35
0.04459515902529688 0.1743169752338417 1.000371214138788 153 91 63
0.051862816704414824 -0.018914735301298998 0.9738335733601158 147 110 77
0.08995296503300461 0.31844721656100705 1.0606106235332273 80 61 62
-0.00015163613334367843 -0.15237897723703442 0.9055693020682686 163 122 84
0.17594186901443346 -0.012087966618364143 0.9698322483994999 169 94 77
-0.04839669190543098 0.06450322326065322 0.9602897939425803 215 136 42
0.05682326420247906 -0.10300263832711021 0.9743830440180175 162 121 85
-0.021353310112826845 -0.10016818865718888 0.9153378495831924 164 120 80
0.043461172598815524 0.25444391265761157 1.0006076872481833 156 109 82
0.023311469926872778 0.23484431341768933 0.9968525270810522 132 93 65
0.04729062452162513 0.11359778522650699 1.0149527358898376 241 170 88
0.0770535634578644 -0.0997703609089021 0.9243519866811873 150 110 78
0.09023205151028967 0.31363334753583505 1.0550278463101945 45 31 35
-0.08359661053746387 0.2913832477094125 1.004295122162914 17 12 15
0.0534891272486903 0.2698047864320161 1.0009480147746599 177 129 95
0.08003726191802389 -0.07932839612176688 0.9358999130236447 129 93 65
-0.0786444280444749 0.06016602111123104 1.0057924853140645 239 147 39
-0.050678979567120884 0.026019502461814486 0.9431718472117352 255 253 250
0.1251641491035681 -0.0245156687830016 0.9522911222700114 30 114 15
-0.07371294616514149 -0.06958996975352509 0.9327098081114769 158 118 81
-0.0769534603399941 0.30625783730020983 1.035386511876899 35 22 25
-0.04359908807903214 -0.20242009129719488 0.9139077400062602 165 120 80
0.10537129452256244 -0.09246462299486238 0.9391745047498439 170 124 83
-0.05202342485167975 -0.13153250692637394 0.9183187524780198 148 108 74
-0.07151961133649436 0.1162045081180999 1.019053482054514 226 139 38
0.03841419851549817 -0.0004385639422948329 0.9590841029906765 160 117 80
0.039077335815161186 0.20747283409397949 1.0023687677134323 164 114 84
0.014843321119105564 -0.057524252402217396 0.9228165970166025 155 117 80
0.050653817192088335 0.19071121788761536 0.9974719910214724 178 123 84
-0.085145034130073 0.04488023851127637 0.9804297735431025 241 145 38
0.043592841874970506 0.2696031697987409 1.0013613561196746 175 118 90
-0.03570821721832684 -0.3119167916034343 0.9160144488069752 25 12 14
0.03781154686497558 0.2912274266733914 1.0028640503996384 165 107 84
0.054592871941320766 0.07727176665040694 0.990116038667928 222 126 35
0.024877517666839533 0.23041213776544214 1.004828226617814 145 103 78
0.07691584706133595 0.2991205940920926 1.0647462200965216 67 47 49
0.02667515961601249 0.10095836080865006 1.0255428044948478 246 154 42
-0.07263143910042388 -0.15599088903507952 0.9206289686181501 109 72 49
0.008364604592837253 0.09650607161460506 1.0268302555146978 217 124 31
0.16368422831968935 -0.04899333600204638 0.9841188197441701 177 120 86
0.017696328767990287 0.17901465971893482 0.9830104195553888 14 125 7
0.014976903469535384 -0.1698231535704799 0.9065399129805125 138 99 68
0.12499673943141114 -0.050298950587973734 0.9626047168041887 144 105 73
-0.03533822429046315 -0.013736612588099453 0.931723909692611 157 115 77
-0.062809944703794 0.18565808424488917 1.0079957547285072 141 92 66
-0.025193092453179945 0.02372900379912625 0.94065771960422 248 235 228
-0.06313202850226969 0.20973964385800237 1.0108123882181828 152 106 81
-0.23352603742831485 -0.03495783399629527 1.0478845024106502 50 121 23
0.026569776361842413 0.07319804312747613 1.0214942208057547 230 136 34
0.03778235194223957 -0.05451168198236871 0.9352954076687596 146 109 76
0.04159375176775999 0.2993484222174341 1.014612948348493 20 13 16
-0.026416034129233126 -0.1760976777379486 0.910123101803432 159 118 81
0.0028576134305523995 0.036972867818011734 1.015294461862752 211 117 24
0.006696200704566446 -0.0052472649580516265 0.9347512064027875 162 118 77
-0.0029686346750652133 0.11107665981576698 1.0119994733361075 156 80 21
-0.040445113377106934 -0.2262487385413917 0.9253887513489426 162 119 81
0.0009170477997400284 0.07230381604297653 1.014244304019495 184 97 22
0.059203985744048726 -0.18206411374028966 0.9215062234536311 166 124 85
-0.1056266115698921 0.3033581748230563 1.0803014676408578 61 45 49
0.0037212522453815454 -0.21617524657570036 0.9216337014091887 166 122 85
0.044970642479177335 0.051543271789324385 1.0069390244893905 242 149 36
0.047966102000117944 0.004752544242659624 0.9748529962732496 135 100 76
-0.03515360655903571 0.11319346875193675 1.0383335264573814 242 227 218
0.09234992839011097 -0.12319595079049842 0.9445687309932856 167 122 82
0.0334067749046666 0.22205507202431707 0.99961059676431 159 116 83
-0.04915700362360449 -0.12046343193361089 0.920619951037747 150 108 74
0.04716797600214191 0.09151848171822596 1.0104677506112862 149 103 67
-0.09651732701667523 0.30663126278157915 1.0190070480208038 28 19 22
0.01726088296667782 -0.012531618614896323 1.016669456110018 156 118 82
0.17175483999786983 -0.03592997494763033 0.980976692303193 191 107 85
0.008339136892069075 0.06164521539214407 1.0213538235471535 220 127 32
-0.04115784984921887 0.08596232644881432 0.9701258090725356 216 133 41
0.04866605235239451 0.039813669348596425 1.0017705201149842 238 149 42
0.08602758437565702 -0.07924010215177152 0.9337937561377967 140 104 74
-0.05602672216194449 0.22129366510218185 1.0055746546126183 159 110 81
0.003988431995219279 -0.32612806630164254 0.9359124762489446 8 36 7
-0.012277920287194332 0.1036258515489008 1.0107141158628505 149 83 30
0.16532131235667144 -0.01726117271016075 0.9817255009709498 148 92 72
0.11248106454998133 -0.08087581899909033 0.9472253085472525 162 119 80
-0.007349625209093154 -0.08312159630675811 0.9165577701069462 153 112 78
-0.07672698901715994 0.2103146429991315 1.0099009479419774 164 115 83
0.005827047721362089 -0.02067119675376354 0.9300298247062597 132 100 74
0.0683886878530391 0.2983047894891736 1.063337329407806 57 43 47
-0.003678700451495262 0.06352078842985363 0.9629321712656677 189 110 34
0.18874777584825447 0.013578227538108611 0.9686851006815961 48 118 21
0.034428141453795205 0.08834870007397852 0.967211075128178 215 129 35
0.05687157241317725 -0.16075064485201124 0.951966466631316 149 107 72
0.02986662978175609 -0.013654470161904747 0.9446994332562298 158 117 78
0.023962429203214747 0.17300444182793176 1.010593142763312 152 102 73
0.017828801391171174 -0.035731971726603085 0.926577633890205 155 115 79
0.08217263951403168 -0.12241407505657256 0.9390605838784915 168 125 86
-0.11458128417979642 -0.15579899286537938 0.9332755507596489 162 118 77
0.0841508587322564 0.32615981891486934 1.065208333108108 0 128 0
0.04541655635816833 -0.06220017387190554 0.957111957952317 118 81 57
0.2047789192152324 0.005087645977775668 0.9706515328873424 11 131 8
-0.11551406844007167 -0.10180382005829712 0.958723004286136 103 70 48
0.024392126490852494 -0.015579214306082112 1.0144571424640396 135 94 66
-0.04567641877166909 -0.3160219233066164 0.9337118226245481 6 64 4
0.01942055035630543 0.13436994677295994 1.0351876267603721 249 228 202
-0.11021716226110606 -0.11452110959648522 0.9524354347888451 116 81 59
0.025735695853257863 0.23457206823948606 0.9892775179860956 104 107 55
0.05746449675386234 -0.12478633775587947 0.9194388864995131 140 102 70
0.026424011184958823 0.03637970194421081 1.0167526632961248 233 139 32
-0.13165697504338955 -0.10538946102468023 0.9518041480198803 136 101 71
0.035667567229970776 0.05456182481398342 1.0144257043028109 243 151 41
-0.007341093575273916 0.009646581650243256 0.9380941002910621 243 229 221
0.07642135095625657 0.31044508263856074 1.0626854089766913 66 52 57
0.029025997977124143 0.022277605380276955 0.9526786058420394 243 229 222
-0.06736992300957748 0.16130164292669444 1.016240261378441 117 73 54
-0.037908142707539935 -0.07079016357420874 0.9229752135209692 163 121 82
0.08649335110534498 -0.06977453631888181 0.9486394254314161 120 82 58
0.06985879790691948 -0.13211004914899582 0.9159841061100389 160 120 82
0.06646253935583346 -0.15604700221984333 0.9433681533607292 149 111 79
0.022448013042679845 -0.10628088650823 0.9174840931181971 136 96 68
-0.0647422585033961 0.18758366785290725 1.0083825630606058 155 98 71
-0.009829243334775398 -0.23454832001498266 0.9287719763181687 162 115 75
0.11762220882091831 -0.055436665802489016 0.9603595663814445 134 96 68
-0.09295180554880149 -0.12582986067886706 0.9530760190611416 64 39 28
0.1825409959831198 -0.0015943851913707285 0.9671431370615491 130 66 54
0.040649376953292946 0.30604576548973744 0.9956554112887973 45 30 32
0.09539489659054813 -0.08154264051561783 0.9504661604115843 146 102 69
-0.03388536878316356 -0.1830066951824839 0.9129361365619062 158 115 79
-0.020752681985855344 0.0652462422492458 1.0222790913252526 193 104 21
-0.09672746544460495 -0.04790196896124686 0.9853621730314308 2 126 1
-0.06104985363031569 0.19583173009483218 1.0088414733979265 149 98 73
-0.06311672399236422 -0.14643977402169878 0.9169834569553668 156 116 80
0.10466929069251384 -0.0675727066326039 0.9556106843387276 135 96 67
0.026228318981012466 -0.15399816089907145 0.9073429246404958 155 113 76
0.17323762499944778 -0.001454960467734745 0.9667447652842533 103 98 51
0.0314824261320341 -0.11133707112200822 0.922102099066361 142 105 76
0.19606974251692633 0.009685908023171153 0.9685234353784282 125 112 60
0.023137840700252908 -0.07581196895719555 0.9213537569648814 152 112 78
-0.06681594877429858 0.20857101670382305 1.0189004359472522 157 112 81
-0.06464518984227148 -0.14193684815799235 0.9180075103302159 161 119 80
0.035647260499174056 0.050879935159917955 1.0139151030585782 244 153 41
-0.007995957364857066 -0.04862003973837358 0.9243781356628274 135 96 65
0.1657996348071142 -0.03458809408702024 0.9679238418045109 171 122 79
-0.06498678814691455 -0.06554406614894641 0.92998352098526 146 108 74
0.09732441615338294 -0.07258539398525082 0.9526937354405729 146 105 71
-0.06266937183667474 0.1436801929163133 0.982150470099949 182 124 93
0.05258535678409291 0.047106618416406176 0.997790522559476 242 171 81
-0.05712974731115624 -0.20780246106942937 0.9179416685400941 163 121 84
0.02441151368677556 -0.00865288831045985 1.0160813733380882 126 90 62
-0.02586573632505111 -0.056876980713566935 0.921757239187462 156 119 83
0.041173497804927635 0.2247469782633712 1.0024798833967674 153 107 81
0.03389296485185469 0.14580749609326016 0.979797630402828 161 108 80
-0.09058634442125023 0.2873595453961882 1.0448283572138515 5 1 4
-0.041352393266294765 -0.12378377124385043 0.9195584108040015 151 111 75
0.024677754507968327 0.3042144981427715 0.9998571874237625 20 26 17
0.03654345163290413 0.3252660332878105 0.9920708612753425 1 116 1
0.13427614753945505 -0.021704109059664634 0.9561768494000584 79 92 40
-0.1017573292025406 -0.1826995612741397 0.9290651176915031 158 117 83
-0.008304139526879334 0.06919826285051622 1.012268328951933 168 87 23
-0.06270125116729303 -0.09560980018095655 0.9248818084862117 155 114 77
0.048131784745974106 -0.002513164268242052 1.0022477451034377 171 128 86
0.13940714492573839 -0.07346917504688202 0.9691527006948916 162 117 80
0.13040197115639515 -0.05939726799308037 0.9609985266673126 153 113 79
0.054952503597830535 0.21664321769473088 1.0046888250272692 79 115 39
0.034150648177389414 0.32811383435652974 0.9992128639403162 13 10 14
-0.009248160340386448 -0.03302045187726678 0.9267526384318916 129 91 63
-0.0315530036758858 0.1152253587546983 1.0381824554653607 243 228 220
-0.00011144612433640844 0.07335044213866052 0.9660437728328273 208 130 42
0.06049218022757157 -0.12661766744943592 0.9645437010744868 158 118 82
-0.04948716157787711 -0.12357339998367631 0.9204653362986276 146 108 77
-0.10630924038145215 0.30620106662861735 1.0864327979394515 54 40 43
0.017518046153286837 0.08547582175434597 0.9629057987623324 212 132 40
-0.01833161589340225 0.11797965428414592 1.0012392274591062 146 98 49
-0.07363897575827277 0.24482341204699942 1.0032338584063427 146 99 71
-0.021053089771235704 0.11424481402497871 1.0273138501396246 146 120 97
0.03666831987613608 0.11248348844965825 0.971357101925819 228 137 37
-0.061483106926595865 0.22077642839338757 1.0103372244174336 150 106 77
-0.01620717904347835 -0.18991531584662932 0.9074116837749951 159 117 81
0.05863807976958777 -0.1335860393517081 0.9630015284913065 157 115 80
-0.0628065433009583 0.15715477790554944 0.9819980941436943 174 112 81
-0.0716747709212299 0.12046098351049561 1.018562161693103 231 136 38
-0.048549495122783726 -0.29556619045778126 0.9345954918884107 61 31 32
-0.09817026577557174 0.2883510557181307 1.0247541731309837 42 65 34
0.08994889258730299 -0.09200548532291498 0.9280614699604444 129 89 62
0.05503483324207352 -0.0910463034484531 0.97835869982143 164 122 81
-0.006264865078548126 -0.13817271736401018 0.9071512246655163 159 119 85
0.10458916184559049 -0.0399226230657983 0.9443670903582199 72 88 36
-0.0634808415610263 0.12793709799809969 0.9791952343283922 233 144 41
0.11645439666278051 -0.08040690754265634 0.9449855932384502 169 124 85
-0.07506856384774069 0.23343306198555186 0.9962757207206027 144 98 71
0.020916993546204802 0.1850239683808311 1.0005942717409904 154 101 75
-0.04841847618139722 -0.29003502219354577 0.9366377209637535 73 42 39
0.04902203234658266 0.3109332042932693 1.0339453470685238 56 41 43
-0.07990912941406156 -0.21683920305264062 0.9389639693366119 172 125 86
0.05634566135257607 0.3256668661331078 1.0509622692008715 125 95 105
-0.0493666270732897 -0.13331201979963525 0.9169869982604266 148 108 74
-0.08134835673992488 0.21402501719561898 1.0223601647815848 157 109 76
-0.02206241621388591 -0.25455363448649565 0.9230795871496186 57 33 30
-0.01921318508355485 0.09818060140188956 1.0232231096053928 152 78 17
-0.06763515526674035 0.16363703676986957 0.982855906704145 174 113 81
-0.015491401910309205 0.06557747206971076 1.0165091867581004 207 118 28
0.04665681579155136 0.11082243602642729 0.9780818187272428 241 150 39
0.08393467190065844 0.31196207346800875 1.0635557974821492 51 37 43
-0.09106908631138227 0.28355540982029837 1.0146497538808235 141 86 67
0.030380572590237277 0.1020796632635862 1.0229751242718086 187 102 23
-0.004563737215416172 0.05760554581338562 0.959420447297428 190 108 32
-0.04836927445167627 0.19780206102349485 0.9971167467472497 148 103 76
-0.0445726441244953 0.12771010319485737 0.98686828997232 201 118 33
0.07030836624932264 0.29826208497230366 1.0586323334628496 43 31 32
-0.05123389954536843 -0.011042477883160453 0.9361138702347304 160 117 79
0.05489809427978194 0.2205125465979293 0.9982916698394555 172 122 86
-0.0072826562248241465 -0.13260716894298086 0.907612085287191 163 122 82
0.0575172851750225 0.2799061075849829 1.0027202818475986 49 127 26
-0.07484643450400326 0.07994800215444191 0.9723059107543743 230 138 33
0.024904437633963394 0.11789407415562642 1.0276803622299522 237 220 207
0.03327942929159803 0.008781756948981905 0.9549881737615304 250 237 229
-0.08102299562635802 0.2574030561967761 1.0213675379417348 171 110 80
0.04345581210396054 0.1254617426469437 0.9758368777178023 242 151 39
0.03590799289591526 0.2972190883864134 1.0006548615054622 77 38 39
-0.11109748698254639 0.29253728916667426 1.0825734595515253 59 42 49
0.0008552255310089463 0.10316968038865793 1.0162202784893313 146 70 15
0.017290450174916712 -0.13972003608165298 0.9119651014915788 142 100 67
-0.019133844989778104 0.08668721081492481 1.0224031859405862 174 92 20
0.023395141587395432 -0.021095087256380683 0.9318366669270692 138 99 69
0.03616956992323301 0.13280417906508446 1.021547338172165 238 221 209
0.009493074813653893 0.015639928541759027 0.9440388242517427 249 235 226
0.05800569878909602 0.3132034300634905 1.0528270756301468 57 42 43
-0.050022823062100825 -0.01369844408940835 0.9356332107780391 165 118 77
0.04495838423737975 0.2157041679734799 1.0030661645710055 151 105 77
-0.06198557935510719 -0.07946198796180762 0.927547235019764 145 107 75
0.042690868887010215 0.17813641952574366 1.0012003921608987 159 95 70
-0.036412747323676914 -0.22767913160439282 0.9281595727751064 158 114 81
-0.11697537105801632 0.3022803315825312 1.0820317967072817 61 44 53
-0.12041012322019692 -0.10571179298263166 0.9544062076698345 103 70 48
0.03978989730954857 0.12097471177918073 1.0209000034797509 219 132 37
0.1280895858317169 -0.04354028374023908 0.9665977235631306 133 98 71
-0.010404550056655967 0.09619801446164422 1.0093216268743195 139 70 22
-0.06606631514422166 -0.11332099733209153 0.9233563086682084 160 121 82
0.05158757713245524 -0.04435601682544621 0.9913101076674317 158 117 79
-0.019932708223944683 -0.02671399909368132 0.924928846144501 149 109 75
0.1120997045154888 -0.05882055604223638 0.9586735760893716 131 93 64
-0.016244479122779987 -0.14699684486659728 0.9076611991595498 163 120 80
-0.09204026665089164 0.1954858683626925 1.0084083319155217 160 117 77
0.019898260789866503 0.32288902103587047 0.9963974071861347 0 128 0
0.09736798431187493 -0.07071495201858857 0.9527932340240556 138 98 69
-0.07812991157219244 -0.1879957520151876 0.9196504123431882 159 117 82
0.04847235806295123 0.01920288853319535 0.9999249479172285 216 188 172
0.003997121060276959 -0.04413808026001416 0.9235518559944242 158 117 80
0.046753865116443485 0.19917438923661013 1.0017344705720692 165 117 84
-0.07411611940237069 0.2713296107589873 1.0113708434623117 114 68 64
0.05654164299728057 0.04744299591474016 0.9914782429471145 246 161 62
0.026784411738620287 -0.11212011339564677 0.9195391393224315 140 99 67
-0.10424505797594347 0.30178019123358457 1.0771217954759755 60 44 45
0.10081945887487194 -0.06365939611837504 0.9479214410369293 143 105 76
-0.06521226845563272 0.21738366530079117 1.0197134824072596 151 106 79
0.0010697295400962478 0.05724279674069034 0.9559872733834482 216 138 49
-0.08713590006734873 0.20233462696136897 1.0195746425707446 175 125 90
-0.06152651339789877 0.3125124918846101 1.0076126502883456 7 69 6
-0.05966304008012035 0.1935016292525738 1.0140571804993985 151 107 81
-0.00019867624154247694 0.13527290372364692 0.9924999258749286 204 103 27
-0.0372960168055012 0.14025670879415125 1.0400168590141028 236 221 219
0.0017842601587260902 -0.08197508551566429 0.9175282083100725 152 113 80
-0.0667314396324689 0.31060332559173975 1.0190603608508255 43 29 33
0.05627262534088368 -0.17118202278703137 0.9157823590926538 162 116 80
0.04955556086485381 -0.15755078403288064 0.9549163904333783 148 106 71
8.119527313401624e-05 -0.13890149284201497 0.9061261645549292 160 121 84
-0.05992807846035478 0.12271099084484527 1.0266329425407021 227 141 41
-0.031966628563274535 -0.10730745099868194 0.9185874146990569 159 116 80
0.022128961953656275 0.22879112690813772 1.0039238845207457 39 120 20
-0.03218434210737766 -0.21714314374358204 0.9179318577631808 164 120 83
-0.07844607482269261 0.12914445094405946 1.008637831907949 203 117 27
-0.20226300330872668 -0.05924933344257505 1.0201216112253952 158 118 82
0.040260620233287574 -0.16549395243781662 0.9614898110709064 167 124 86
-0.09518240812518708 -0.17577224859001314 0.9263098331709965 144 101 71
-0.05661204254440741 0.23664207259640668 1.001693053648708 127 87 70
-0.09826198091772967 0.28986337788728167 1.019667090525736 59 45 50
0.19981241859786877 -0.02402462207451811 0.9778637335979108 116 127 53
-0.0024910097522078257 -0.106205579634251 0.9124979678022954 157 116 79
-0.08996485632748306 0.2635306795538784 1.0214451438662164 92 124 47
0.012712066888168307 -0.06675866694534345 0.9206477870324467 159 119 82
-0.0824872378131449 0.24317258718803467 1.0181122770068045 153 103 78
0.02322249329409107 -0.1854445407447263 0.9054232267933399 163 119 80
-0.07880337447402691 0.18516259358202197 1.0009974694165753 187 131 98
0.04266183970996253 0.2944753712238461 0.9989874937634308 11 4 8
-0.0618834839617715 0.12327500207917458 1.025442311856859 223 140 45
-0.16246673743303944 -0.07888176390255505 0.9746890204918903 119 88 67
0.11006792580212672 -0.03690144016673724 0.9477195489484982 96 66 49
-0.03362634384223916 0.04774430925377919 0.9572888066448465 204 128 43
-0.0830223141989388 0.06783568579783439 1.0013228386648292 239 143 35
-0.06916227204149979 -0.1046425029558169 0.9263381848589874 157 118 82
0.20920277138649682 -0.0037073712859251318 0.9739510996119938 21 128 9
0.02931687393858125 -0.030346363026379043 0.9319983844416634 140 103 73
0.04396200575461048 -0.17010760973545894 0.9556780384202634 141 99 70
0.03457820831224907 -0.10344563163514917 0.9264646656654434 138 100 70
0.09929388711151318 -0.08993838883762978 0.945474011741875 149 109 76
-0.031301637440386665 -0.04860773296300515 0.9221077869797546 156 116 79
0.004818323225917536 -0.007988585452371133 1.0200359052257912 250 235 226
0.021201494328966952 0.04362926679616852 0.9537530198584953 224 141 43
0.12327438386606268 -0.02629575967896569 0.9516809894955862 112 80 63
0.017184131591362218 -0.07646461836181401 0.9191193058564536 158 119 81
0.019361824680383076 0.11047610732555746 1.030879222075436 241 152 44
0.06266102505949081 -0.1412761896749326 0.915360872383394 163 123 86
-0.029800152981672975 0.1298653250095042 1.0407666123080312 232 217 209
0.04621317949103546 0.1908092670786041 0.984386089707556 162 102 71
0.17266997966092607 -0.03195175003098055 0.9722628040045004 183 106 83
0.03595411783296561 0.019355745361350703 0.9592435550155008 252 240 231
0.04638229657614367 0.011588434078727894 1.0055766509771211 170 123 81
-0.03579237683129774 -0.052997564511796436 0.9227154163117057 158 118 80
-0.09230041555063404 0.2488166887843776 1.0138331612712566 44 120 21
-0.04430320612661119 -0.13902391473439407 0.918221020299255 147 107 70
-0.05389886979004763 0.20692978702859532 1.004161292350878 155 109 81
-0.026737922441920314 0.06511311997370657 0.967865778126836 191 115 35
0.04585091577390539 -0.09201268034585466 0.9830672899954769 153 109 74
0.003177811373297635 -0.29215594649828974 0.9193311565972471 49 30 30
0.03720669417504571 0.21430867364693218 1.0017551186412774 162 114 82
-0.04319244261061359 -0.29703155816555843 0.919390590993098 60 35 31
0.1072743382776675 -0.048122501289220104 0.9539284474661125 109 73 50
-0.0840307964259744 -0.06205605384705851 0.9454299960682454 151 110 75
-0.0522487133363064 0.13333201953852936 1.0337884074293662 249 235 227
-0.07831419489518432 0.04249970741331724 0.9749145331537579 243 151 40
0.013849711737071436 0.09171823080516828 1.028748308438582 234 145 35
0.053531258222573826 0.042592061151440146 0.9926137770419309 74 135 12
-0.053760481475222666 0.20039493799870883 1.0043105905431409 156 108 79
-0.08364744210941856 0.24353625113966385 1.003794870485665 150 100 69
0.0399449053769806 0.13044003296776085 1.0179472634049933 230 215 205
-0.03891996284538283 0.11181819816262925 0.9837070936980362 184 103 27
0.04506097361424725 0.06450691333127068 1.0088277207782088 249 158 44
