ply
format ascii 1.0
element vertex 678
property float x
property float y
property float z
property uchar red
property uchar green
property uchar blue
end_header
-0.02059335329930572 -0.33044649603830994 0.9351448514160421 11 12 11
-0.009788126172082245 -0.04031199087733328 0.9205693079673658 144 104 71
-0.0840879443277438 0.3049228064751346 1.0155241324505226 13 7 12
-0.08438000101189913 -0.17245389042864367 0.9263295116126347 158 118 82
-0.07841304645689806 0.05044247283797887 1.0042662616949265 242 150 42
-0.026280539235438726 -0.24740384881670577 0.9330671653747984 135 81 55
-0.0423206421676575 -0.2865187419885988 0.9387675751687011 78 50 42
-0.06628735095197409 0.1564573395536832 0.9859830454918255 174 110 83
0.07680704160450635 -0.12345847479965855 0.9136789281777347 149 109 76
-0.07458844261570485 0.04823457131455999 1.0199146802545638 240 147 37
-0.02566523762438888 -0.199239202472409 0.910338605105811 157 117 80
0.013983280662068553 0.03597676937000838 0.9476157516652989 201 157 112
0.046391344936286945 0.2877661027268766 1.045218516666659 28 20 23
0.01534787003089546 -0.20067884663263527 0.9062204831415438 164 121 85
0.042793566429596176 0.2905943398568376 1.0327968029292014 47 32 36
-0.0532528434634596 -0.06890836682264573 0.9284030283361042 151 112 78
-0.04087736342130757 -0.28850572162374544 0.946848757747236 86 53 42
-0.05192074159976123 -0.19174592279028488 0.9143788353292053 149 108 74
-0.004606515908163745 -0.2913857545463799 0.9055037816574945 70 37 37
-0.06758245630747411 0.2795480913377934 1.004172529379836 0 129 0
-0.013371896095222269 -0.29187117141978414 0.9772351145897784 14 124 5
-0.06156361711423125 0.15804032671476234 0.9842643372378972 176 114 84
-0.028936738215232644 -0.3089428490933211 0.9607020903127318 104 57 49
-0.06898592325495023 0.09910285628699933 1.0318086453007753 240 146 40
-0.07828854257307083 0.12062943942873972 0.9985451925313304 221 130 30
-0.006593603684222016 -0.08497878114583024 0.9126618161526274 154 115 79
-0.18017161409651838 -0.07373685795248064 1.0062659482156073 174 131 90
-0.17746501713074792 -0.05837551419920026 1.0145106069306515 112 94 61
-0.04885955764427863 -0.20076593119793118 0.9160238147450667 154 115 82
-0.08464039623953992 0.1984016603162437 0.999058988110763 167 110 78
-0.008928127721555823 -0.13869369086789085 0.9071545157601395 159 119 83
-0.07354137195324459 0.15575213642988062 0.9927071302505074 185 123 84
-0.013095681024076544 -0.3086921732367487 0.9723579918983187 0 128 0
-0.07670984612316938 0.1582206271443777 0.9997355633164721 181 119 86
-0.027629183289625357 -0.2542058163365278 0.9669192437641161 187 124 81
0.15498031941796642 -0.0200079956607504 0.9702395336830635 148 93 69
0.025220170729249685 0.13551492502278445 0.9762823996771222 235 145 41
-0.004253396750368418 -0.2336111478870877 0.9249171961298381 161 113 77
-0.07588875018688779 0.00033225971644268437 0.9827572965020959 199 184 167
0.028459211213073134 0.20554297140411126 0.9866796896610577 141 98 69
-0.031218934242977885 -0.3146179383573022 0.9196213060614001 16 9 12
-0.020229966639324415 -0.1341092103585435 0.9114245871364339 159 117 80
-0.07213769751665478 0.14690706710618606 0.9918193810106757 176 109 78
-0.08016793549807977 -0.03723223751807292 1.0098501277324667 135 99 72
-0.08259049449888656 0.07361372838261904 0.9983467879123301 123 106 93
0.10245157621320006 -0.09394983174783697 0.9226702418641544 71 121 37
-0.09841624959976802 -0.18798470597757877 0.9507161554898602 172 126 86
-0.009668033672109 -0.04211682076748891 0.9203258334860562 145 105 71
-0.07387890454250345 0.14037638441362477 1.0019722026157698 179 119 86
-0.05686239505124771 0.04921912815187355 0.9620381661503237 232 147 42
0.03821331521548932 0.2143780259196566 1.0160920027975957 156 111 81
-0.07549693400515145 -0.029271698617034714 0.9602666752628006 146 109 75
-0.07237307520536529 -0.16517219205041678 0.9215591495423177 146 106 75
-0.013743349745556355 -0.144298653330039 0.9083532472721085 161 121 83
-0.07664376098885471 0.1271202421082206 0.9884338051412502 253 159 47
-0.11063281910742284 -0.15670528911399062 0.9429935726779126 173 128 86
-0.08496792023040989 0.3026137369949278 1.016769892807075 38 28 31
-0.1855932022676141 -0.07567232759186271 1.017445846804321 179 130 86
-0.11604175277265061 -0.1398191931687749 0.9397471746611891 108 70 49
-0.08287900402107362 -0.036090200692503016 0.9809739157651485 139 99 68
-0.07924254078197658 0.17242785182925455 0.9950244548110242 183 117 80
-0.20052430612092187 -0.06791870804497802 1.031951268832454 197 116 83
-0.17353949556419457 -0.08135909220044546 0.9957671000365499 181 135 90
-0.09965108502311759 0.3153566296127268 1.0387194248875449 188 173 159
-0.07212319523013244 0.18824305306124856 0.9848414128343143 165 103 70
-0.11148196416703593 -0.15504345601459413 0.9428853006506841 160 114 78
-0.0851692596784382 -0.06149887961053814 0.985178869444245 90 61 45
0.04600724473985688 0.2746254233151737 1.033737298462577 7 3 8
-0.07694152187608583 0.037453317517545104 1.0107366694316728 224 132 30
-0.06243122669192337 0.06040406222015951 0.9674725513526328 234 147 44
-0.0409685065244323 -0.3016959878607338 0.9445182324932543 66 41 35
-0.07614034392907754 0.0005396124388936663 0.9985550635420102 226 207 189
-0.1124883216193755 -0.15775030488650366 0.9492997476770273 171 128 86
-0.17221789233195284 -0.0900852446503897 1.0022256304103236 178 131 89
-0.2049681299792271 -0.07245011217353214 1.0524465577618702 172 79 64
-0.08078200846317088 0.26445968982850426 1.0325841688321113 16 39 9
-0.09233774024256358 -0.19479146071868492 0.9411968564844293 168 124 84
-0.035094099907584164 -0.23482743868420464 0.9352863149632936 166 117 81
-0.015774349580589986 -0.151452030425824 0.9083808954926161 160 119 82
-0.08034720922845517 -0.04839985269501379 0.9683341180178553 144 103 72
-0.027863423342906427 -0.15189207536818028 0.9114212781398887 159 118 80
-0.07054289714298057 -0.1394727733375887 0.9303955039665429 130 90 61
-0.013955033887677937 -0.1868867569583621 0.9072326395097123 160 119 82
-0.056410856899128115 0.07835651137729864 0.9670978635926865 236 149 45
-0.07834269333364519 0.06783791040062326 1.0174816120864407 201 110 27
-0.076671534200907 -0.04705833656428671 0.9605646487090356 134 95 65
-0.09962692677005158 0.31923437448879266 1.0394135236127624 68 47 66
-0.02064923550152561 -0.25494770271890715 0.9244374149135811 70 43 35
-0.030182104502230578 -0.03203010360011593 0.9240951343350514 155 116 81
-0.031855736252321964 -0.0753179427850772 0.9222899809927082 160 118 78
-0.07784203960434555 0.056983483072092334 0.9916992043792825 201 160 115
-0.0830902571758951 0.24034729681862155 1.0089588193318122 150 98 69
-0.08999483129882109 0.2871053070483784 1.0281056945642781 21 13 16
-0.01680661223448654 -0.1958511256819131 0.9085560331850695 157 116 81
-0.12411741604582538 -0.14156489142814355 0.9705543496539861 156 113 82
-0.027449219166972072 -0.21603529910421992 0.9164854488606483 170 125 88
-0.14669087339684217 -0.10996048691399096 0.9720460943335982 172 128 90
-0.08133439582609094 -0.1395528510976729 0.9407432444220236 89 57 42
-0.020463980623953302 -0.24179807012016236 0.9286610976460248 160 114 78
-0.12894936321430028 -0.1333089110780885 0.9695790068403173 174 128 89
-0.08575854701946373 0.31188809777720383 1.0180052231825685 30 19 24
-0.03646767353944559 -0.30387670846061365 0.9210914113822473 43 25 24
-0.0547834468439754 0.12309892946958767 1.0495464937034875 195 219 190
-0.07373041711873707 0.0908197511308102 1.0238528663256097 213 122 33
-0.17427945905430767 -0.060526356218722904 1.0085254195965347 110 83 56
-0.016499573652890787 -0.16559058074442712 0.9077669934246948 159 118 79
0.04987079604814815 0.2782916600517038 1.0473949554207151 55 49 38
-0.07114014699447382 0.17733241743097058 0.9854193913776882 175 108 76
-0.06748375975332399 -0.11784598021669268 0.9467817375482585 98 65 46
-0.05891091536132107 -0.005841553272831477 0.9461488553527465 168 123 83
-0.06658727044982822 0.2548778026784866 1.0024762481968779 78 62 44
-0.03107258073406773 -0.2458656286140341 0.9449425788869712 122 68 45
0.02017944186986379 0.13790374288106327 0.9811268253868144 151 92 53
-0.04718065802399407 -0.11817751323747784 0.9189249302011387 156 115 79
0.029946743014499733 0.19589230163413385 0.9813717669353751 151 106 74
-0.07235589805208661 0.15054869661721704 0.9923441893277694 185 117 83
-0.009622705944409697 -0.04392528778975347 0.9200543464150189 146 108 76
-0.11950593078421357 -0.13887423395711185 0.9437684490289241 173 130 89
-0.012654107938144143 -0.09623621295320905 0.912557383659402 159 119 82
-0.06491877974251817 0.08513308518290179 0.972547326960088 233 146 41
-0.056315704032890976 0.08203005310589576 0.9677518046530297 237 151 47
-0.02456266616755021 -0.2596557448705902 0.9239570969324602 63 37 28
-0.05407647953493111 0.10013157837892495 1.0500181048539092 213 120 34
-0.02018194407530577 -0.32921727162252473 0.9296705714208265 3 93 3
-0.006626699051382023 -0.08139669463085308 0.9132192369195152 152 113 78
-0.07665764739427262 0.08660167271007231 1.019616151082732 223 131 36
0.016594048992329132 0.10145320983798911 0.9716882114293736 208 123 36
-0.2051822875951375 -0.040668508962632376 1.038139097200518 38 121 20
-0.0656392192150943 0.005969599302769191 0.9608461732615772 250 236 229
-0.17258021856609096 -0.0701640796588332 0.9965884898630917 148 113 82
0.10373180120173049 -0.07488782252324304 0.9325615019249249 66 113 37
0.015509110364965384 -0.16345394510218503 0.9023055307091963 163 123 85
-0.04059372518316726 -0.30630106230562987 0.9419506087927813 43 24 23
-0.05939688718818735 -0.03175605942770137 0.9377955169882956 142 105 74
-0.08046329167596833 -0.032883843125064316 0.9709671527039072 143 106 74
-0.03107258073407961 -0.24586562861403502 0.9449425788869749 146 85 52
-0.10179741386718312 0.29209664331465296 1.0645166694609536 17 10 12
-0.1291684606751774 -0.12949090912593686 0.9554048801469922 144 104 72
-0.12149691408248531 -0.14392504253063487 0.954761512441106 179 132 89
0.05358652198667287 0.271109250027392 1.0362630858337483 9 5 8
-0.08095564921056164 0.06314683720400138 0.9972867523527955 239 218 180
0.0005799629895979486 -0.11841241787552814 0.9060354861024356 157 117 80
-0.08261902505128771 -0.03585393808723614 0.97918422273184 117 80 57
-0.006733067335988885 -0.09569995632242412 0.9109064703078227 156 115 80
-0.17728450327616255 -0.05973167135026867 1.012496092218678 99 69 53
0.012722380509595432 -0.11785903344829317 0.9045489925210086 159 120 84
-0.0793658669830456 -0.024335689924371295 0.9749011600996687 129 90 63
-0.04279640754918901 -0.02344697259682449 0.930347725592954 128 90 63
-0.03417545965826548 -0.3036001815146354 0.9182981592784021 48 28 25
-0.07494570038764592 -0.022493209760460764 0.9636054407788389 145 109 77
-0.052210564459244435 -0.2026779250025147 0.9181022757814977 168 124 85
-0.07807045671060377 0.050199784730486016 1.0084118036298872 241 144 37
0.0002860904760204619 -0.11305632081866523 0.9067775858002507 152 113 79
-0.07772420312166928 -0.01302998874489339 1.0053814348557188 146 104 71
-0.08467286430587029 -0.115099759096851 0.9586104725332836 111 80 59
-0.07602318510775635 0.15452022594064943 1.0054539297406213 177 116 82
-0.18813565067338264 -0.052753713811579755 1.0240911734853086 136 97 70
0.046543818277722984 0.270686688924587 1.001846454889133 90 50 46
0.0446894317745025 0.3000633160841656 1.0374135351284202 62 44 38
0.02317482974788405 0.15285505216980816 0.9825814191124118 159 99 77
-0.07648108041659674 -0.023043395406144918 0.9667056276903447 150 112 79
-0.08167219830573713 -0.19476623653208325 0.9292900593977964 156 114 78
-0.0061330940298007786 -0.19987537779630493 0.9081128786213594 163 121 82
-0.039645296504315475 -0.2120120218054798 0.9179388349040418 167 124 86
-0.2240449036755482 -0.04784416259802424 1.0501935610694677 105 97 46
-0.03561502102387697 -0.2646205633874168 0.9534235505464795 191 112 77
-0.2247010916085918 -0.036003837027885725 1.05590898493547 113 99 51
-0.07621466751941541 -0.029541295474673213 0.9618351820192482 136 102 75
-0.21723814301616062 -0.06193641118998594 1.0444862240903294 174 100 77
-0.07919344959851461 -0.012368665149436082 0.9967849004457323 148 106 70
-0.08188283598406819 0.28472645287901 1.011022322563266 26 13 14
0.03226562597707025 0.3009871194214291 1.0035259279350508 41 26 30
0.0011372977137724671 -0.14005414663641735 0.9047659804245602 160 118 78
0.057627737539741375 -0.17092875576873778 0.9079635776207728 160 119 82
-0.08189870715381985 0.27372762585777904 1.039892457196866 18 14 12
-0.08015482681025277 -0.06593736094973934 1.010689311366651 144 105 73
-0.02786342334284031 -0.15189207536817317 0.9114212781398945 158 116 79
0.02271953543766878 0.17090886705711758 0.9853360883909245 159 102 72
-0.03741390452887476 -0.3040639916378989 0.9225629809731051 43 25 24
0.00961713422141637 -0.09642656420821949 0.9088025825281081 156 116 82
-0.0391193200337116 -0.3065443885089621 0.9271419902492255 42 23 21
-0.08396737872771332 -0.1987026857335814 0.933174004727275 178 132 91
0.012216461764444542 -0.12144544574081113 0.9038058992836728 144 106 72
-0.07846063510341617 -0.08136039484202007 0.967360687311457 105 72 53
-0.11372868059385954 -0.15975636970174767 0.9613264914154604 176 131 90
-0.07510544492129978 0.16460292495505913 0.9915245876998153 187 122 84
-0.07297889977339378 -0.09957016290728182 0.9628607570691756 85 55 38
-0.008170922868653507 -0.1583207452003874 0.906242397517396 163 121 81
-0.17449318798454705 -0.09043953582346442 1.015674057383326 133 102 66
-0.00875684913268937 -0.11549218828074359 0.9089702422947424 160 119 82
-0.0804450396752514 -0.21129298927240248 0.9457369627143664 175 129 93
-0.033323527957368704 -0.21591150066827067 0.9179660578316895 168 125 86
-0.11991932358527047 -0.14287882808795072 0.9483591717940005 180 134 93
-0.06613694875909149 0.06943902635126031 1.0362251073065254 245 156 48
-0.06095942716523824 0.08078330534189102 0.9695471430137486 234 148 44
-0.018128290083318177 -0.1726828366129336 0.9079365401243571 157 116 80
-0.11553088890951879 -0.15610664402599062 0.9592246169527359 167 122 86
-0.07122828570598938 -0.14109577402731172 0.9298302604906141 123 85 60
-0.06890525795843475 0.15057422536745596 1.0223757563603515 155 93 68
-0.17539178668954714 -0.066437250384761 1.0030571925775331 132 99 73
-0.0774629737101538 -0.00843961516057531 0.9785380442612381 162 117 78
0.05068535491031856 0.26804537928897876 1.0007596983814524 44 122 22
-0.030193290389961432 -0.2864149710327077 0.9152077428195597 54 33 31
-0.10911470098001351 0.2981549100625989 1.0639166628775976 77 58 56
-0.022331627227756137 -0.23222484114083106 0.9255771939537873 158 109 72
-0.06030627946907627 -0.028555531669465697 0.9398755672788386 119 86 63
-0.07741821295694584 -0.19821430231521164 0.9287188708734139 170 128 89
-0.023190011040879123 -0.24718444492141625 0.9305167842907744 136 83 54
-0.041861296501441846 -0.2968860175006796 0.9314142080309136 60 37 32
0.034996280161212666 0.29580590170332693 1.0081504031232977 36 24 30
-0.07773359218573171 0.17679217097872182 0.9904476791139771 175 109 78
-0.06310479042394745 -0.1317119630886251 0.9253963303115833 102 65 45
-0.08389317390204054 -0.20066249019763482 0.9347340399229642 173 130 90
-0.041333983911800876 -0.1812358414590377 0.9109191663564766 166 123 86
0.016598118540087647 0.13676614831294026 0.9838055127886882 214 129 41
-0.08312313803213511 -0.04129518016459699 0.9799458183781337 133 95 66
-0.07571922825650496 0.11850710313216183 1.0196081199289067 178 104 36
-0.06378232419002483 -0.019216294440035475 0.9476967983376744 123 89 66
0.02739706627905412 0.20713322397137984 0.990859337422745 128 85 64
-0.1770159642245369 -0.08827014708906006 1.0220568486774204 121 129 61
-0.028757608038453952 -0.26121886655830107 0.9671635554601079 194 132 88
-0.030378999585326305 -0.256301821164278 0.9612639279739885 186 121 79
-0.045693672010957975 -0.1656933876270399 0.911735598654472 157 118 82
-0.0825161464065356 0.1802972442936701 1.0089483733060831 171 105 75
-0.22653464342038276 -0.04401161596561298 1.0548474364912215 148 83 61
-0.06792648320053796 -0.1039999212347058 0.9470254293392247 99 62 44
-0.07626695020638707 0.005666565719256722 1.001401613788284 243 226 215
-0.03381777849297751 -0.045160492684577225 0.9244791761241666 163 118 79
-0.2198347370012994 -0.049840337152818104 1.0452202212014807 166 111 83
-0.0722335243487221 0.16941614248787448 0.9876035104415499 186 118 80
-0.0374581340696436 -0.19006872774220995 0.9110093690027719 164 122 85
-0.12221973472677083 -0.14226263927510274 0.9751424653648435 139 96 70
-0.012390498730272093 -0.1815318582443366 0.9067544732086729 160 118 80
-0.08071482229833488 0.20368308447978123 0.9937114089040574 162 110 74
-0.08422884344626844 0.2856287710259134 1.0141902227257484 44 25 21
-0.013095434992147492 -0.1887038911547081 0.9072664962309793 160 118 79
-0.010796698865787269 -0.1263071006451293 0.9084422293917822 161 121 85
-0.10499505901843809 -0.1730751599512259 0.970829703012736 136 94 69
-0.035358086890664664 -0.22173968016194978 0.9219193974420987 169 125 88
-0.04995508345926193 0.003215052605477587 0.9415816986811512 153 130 108
0.07900684281414695 -0.13280421273190215 0.9108781351823358 78 121 39
-0.10415219477120652 -0.16053299394877962 0.9361419296207485 159 115 79
-0.07290088817498416 0.2791146239371246 1.005879943752053 103 57 50
-0.022050823466726117 -0.29822757296875285 0.9089466915842274 64 40 34
-0.06337028470253925 -0.22207022972418722 0.9518289755327523 173 126 88
0.15855920319390546 -0.0175961838305727 0.9718843086788272 129 83 62
0.011205218205491918 0.1210439437671772 0.9876007936119264 203 112 28
-0.07384866478023566 -0.050923558249492684 0.951529938652744 124 86 59
-0.0010135612115991022 -0.26876157419817576 0.9125717475636609 31 15 18
0.04859021510414425 0.3018131472159329 1.055418059320741 129 111 102
-0.017041244257540944 -0.10383391569766509 0.9136083210838779 157 115 79
-0.05683922259202767 -0.027851899182370965 0.9375579312253473 144 108 78
0.046561339113162736 0.28566160298451115 1.0449380500487726 40 28 31
-0.07893296318662224 -0.04786657795942495 0.9652015558092977 140 100 69
-0.028394076115147365 -0.30333511078299974 0.9131358654132335 43 25 21
-0.20707569508075196 -0.07516955072105946 1.0599095338233901 163 80 65
-0.08237154765682952 -0.07560910138345989 0.974287174442415 114 77 54
0.032803478643788964 -0.18798448329614148 0.9026173885144901 164 119 84
-0.11330080186772973 0.3152557188410725 1.0648578783844154 149 119 114
-0.06110481203190776 -0.21918567221959995 0.9361330220359603 173 127 88
0.022364128861997346 0.18086850476058003 0.9889675399882389 150 99 72
-0.027765869959219154 -0.23416270127010919 0.9288166829060864 164 115 78
0.0012139720658956854 -0.1255531140397559 0.9051333842388256 162 121 82
-0.07171469446909635 -0.0006014578436674563 0.9629376841038696 162 118 79
-0.2150484304609468 -0.06504935011466695 1.060290582095224 88 112 35
-0.058906570953428834 0.1088376695184599 0.9731346063508611 233 146 44
-0.0454733619811889 -0.20821681868680741 0.9180745738748557 170 126 87
-0.2151655226978494 -0.053352555245299416 1.040209325018473 165 109 82
-0.07295108847532239 -0.09930262178379134 0.9609848686421807 77 51 38
-0.11556031987083326 -0.14143878076366878 0.939689155333687 132 92 65
-0.08781389416573049 -0.19953786847385224 0.938735449157557 172 127 88
-0.08310319227178065 -0.053128958679979243 0.9759339987595943 121 83 59
0.04688495812610521 0.30073121195102426 0.9934862927850467 9 100 7
-0.027597022856628503 -0.26743552892400635 0.9213840203593987 59 35 30
-0.007523939433920706 -0.2961946164145414 0.9055003311826907 62 39 33
-0.08639311390133564 -0.1487962458332528 0.935044028684923 97 64 45
-0.049877900942986164 -0.20263896493419864 0.9171844042480032 167 124 84
-0.11485383464294581 0.2995697527129178 1.0757207589087134 65 48 51
-0.19859722117152567 -0.0691793210795133 1.031069174576394 164 106 76
-0.14046994988192085 -0.09879833117506776 0.9644276761111386 141 96 63
-0.06940211280727926 -0.03228372776044368 0.9469889522462224 150 111 77
-0.059053439225097655 0.11064326547945719 0.973375096864846 233 146 45
-0.12194672258800354 -0.14447182560267757 0.9581319459504325 179 133 89
-0.13185745034458063 -0.10507015795750885 0.9547661106743326 153 113 79
-0.11715568534160811 0.3082492488750519 1.0823587961375 16 6 21
-0.04024546320915531 -0.27999449542445587 0.9311672835866562 90 60 48
-0.08441222522263603 -0.04685679086968686 0.9960245503276177 56 32 22
-0.05352029171370351 0.09377267530149934 0.9688944877643042 228 144 43
-0.19202391466401791 -0.05942766675155142 1.0222605477967281 168 126 86
-0.06623963181762682 0.12070039078207806 1.0307953100174034 209 196 188
-0.15678465760562665 -0.09693589942175285 0.9782676908239385 175 130 90
0.013028190229026343 -0.12506988396856844 0.9035226927704647 157 118 81
-0.07417403625413632 -0.051169730650617806 0.9532662467002397 139 100 68
0.023272471764543848 0.1468418874120302 0.9816430139622229 166 100 75
-0.013795529207618396 -0.2051548017170579 0.9101436124225611 158 116 81
-0.08543734258597646 0.21488539900867085 1.0055375579583619 156 101 75
0.017203291620484104 -0.022758045828890572 0.9251398357879614 75 120 39
0.05435441447128315 0.2627692702945342 1.0306261289207495 9 44 8
0.001835953224406106 -0.15984947299250551 0.9038328387669605 161 120 82
-0.08277641095658693 0.1785244724591789 1.0004847973745588 164 100 72
-0.06146962291914693 -0.06816984119782551 0.9309265438367911 157 115 77
-0.17618001926045201 -0.07897632340780625 1.0002193064544387 175 130 87
-0.08733708130709861 0.293905484293711 1.0203089207768934 57 43 48
-0.20958892058902867 -0.061654175640158404 1.03663446104233 202 112 91
-0.02345619270777157 -0.30230712871476284 0.9664866430957397 162 103 66
-0.02508712941951785 -0.31239864676511786 0.9130033713925967 20 12 13
-0.020590424688933677 -0.251542739836175 0.9767940254311382 182 122 78
-0.08582099406993793 -0.2060080610410795 0.946027303927585 173 130 89
-0.1240036705194647 -0.14173109707925313 0.9612971246986117 176 132 91
-0.0750425079067758 0.16839393267563763 0.9901995666586703 182 114 83
-0.08339273485077492 -0.04993358934105352 0.9783038126876321 141 100 69
-0.0635392995409922 0.10015687629843473 0.9736862226748547 233 144 42
-0.07348269596394041 0.10012084609903305 1.0256325285347998 149 95 55
-0.03959673826821608 -0.22590014526284952 0.9271313913974254 169 123 83
-0.08541432360526215 0.2055527943845227 1.00193835959598 160 108 78
0.013663554810817602 0.13181195624229092 0.9860957726968881 212 124 33
-0.055586040560731693 0.10606993267510922 0.9720761076390206 229 144 42
-0.0757958490072812 -0.003948647060696753 1.0079593134096916 201 183 164
-0.06115028282680335 -0.19034320352099443 0.9183206109231912 152 111 75
-0.07284380095886922 0.005170149154796633 0.9751495492822557 247 233 224
-0.07329488495075842 0.035573136581697584 1.0203345174862748 218 129 33
-0.08046329167596833 -0.032883843125064316 0.9709671527039072 145 107 75
-0.06280941583665689 0.069960397273642 1.0401038482883997 224 146 32
-0.07950269064125726 0.06564836934557006 0.9924345003697894 219 199 169
0.007011813287326539 -0.1507209148942251 0.9032374335994433 159 119 84
0.04561423406734987 0.13116636210704014 0.9703734181376176 127 140 19
-0.10202723708041583 -0.1655188971579893 0.9362518997276383 166 121 81
-0.08118853897233852 0.25636509570174637 1.0105365901724146 155 103 75
-0.01574681521628607 -0.12496246389630317 0.9107046360762968 158 116 79
-0.06563943071361078 -0.20132110084165644 0.9239584936590688 164 120 82
-0.07938430598428414 0.06232268961606158 1.0139597842748476 185 102 34
-0.08309025717590451 0.24034729681861994 1.0089588193318109 151 98 67
-0.022785940444350894 -0.30343852071638194 0.9096983093936338 58 34 30
-0.11291844773065174 -0.1536344760710291 0.9442928599573372 177 131 92
-0.076111041258866 0.11264885469878247 1.0224685986670825 151 101 56
-0.2063639924923396 -0.07072671271094555 1.0499787353420753 159 72 62
-0.12912450399777176 -0.13162934021534678 0.9587139429819829 167 126 86
-0.12768043833742548 -0.12873742650427067 0.9507776503098959 185 138 95
-0.02797285044638094 -0.29807323625115945 0.9122764094471376 63 39 36
-0.03167717451010934 -0.24221367354915627 0.9531819068222038 189 121 78
-0.2150481394869006 -0.044120057661278744 1.0421606444128582 114 108 56
-0.2046844507746412 -0.046656206272422646 1.035400050456637 183 112 89
-0.22385039149951413 -0.035745399958216705 1.0546827141174007 85 118 42
-0.08141495250341713 -0.026189757172636052 0.9893055604909186 137 101 74
-0.07155389662351874 0.00570224931274943 0.9718963469906821 250 237 229
-0.08623795321995043 -0.17258504071207925 0.92734632141056 131 91 64
0.015164479956071395 0.12645006674784542 0.9815552585458932 214 127 37
0.010148690530902298 -0.1324380342825185 0.9033143828025418 161 121 82
0.020459469296546653 -0.20092781645528818 0.9060792199497197 168 124 86
-0.0739868600682021 0.0015070758982808075 0.974002158239701 236 218 203
-0.21507947535563554 -0.05488122567910886 1.0399558073878736 176 116 82
-0.0641265842254243 0.14779396633957706 0.9854513841198603 179 117 89
-0.07553215515084888 0.24919010973854636 1.003715967039047 153 104 71
-0.03423466661142581 -0.13837664234112118 0.9149851567189529 151 110 76
-0.018834766266802618 -0.3286925482067878 0.9264479668561375 1 119 1
-0.03137879729218129 -0.2793389517516456 0.96274489727827 189 124 82
0.0322900206809934 0.05445155809416047 0.9553108353515567 106 135 22
-0.06718508373172327 -0.1147469794718523 0.9493614872837255 112 76 54
-0.08762381999583368 -0.1581798749179133 0.9310408534664081 129 92 65
-0.21701188529751125 -0.06450100114940005 1.0534195515122913 173 93 67
-0.07921250490313125 -0.02095733527892657 0.9932697706303583 148 107 72
-0.07512186816321953 0.009261429864259596 0.984665735090649 255 244 235
-0.01019775967191916 -0.13160675068230177 0.9078172444870877 159 119 80
0.046733087035040435 0.29008678204829347 1.0480472655388837 46 32 37
-0.07905335127858137 0.05840652862220441 0.9933709070727916 218 187 144
-0.07874977104906866 0.05368734927140251 1.0086992249783493 236 202 159
0.0003219123334852192 -0.1526912854892588 0.9044187101889529 160 120 82
-0.2305690557642347 -0.04239733731431691 1.0635476291223689 220 127 101
-0.07331139307600443 0.07026515650634568 1.026546414885555 255 165 53
-0.1041766703339575 -0.16761950820895022 0.9779349401015232 159 113 77
-0.06959890784716949 -0.1078587329365508 0.9610390061049765 75 46 31
-0.11406573207205994 -0.15662477323518065 0.9524341306853765 158 112 74
0.0962602165939056 -0.10183056584206188 0.9193712814467951 76 122 41
-0.07775380046212126 0.05010388871956217 1.0105663932766564 239 151 43
-0.07749641629005588 -0.045610438374239504 0.9623737005315317 139 100 75
-0.122181398360378 -0.1450343525024933 0.9616142394019515 178 133 92
-0.07331022167380058 0.30584543281114346 1.0020849590137741 21 13 18
-0.029898814542669412 -0.254262975500419 0.9342489000370523 118 75 54
-0.032670762614383175 -0.22178171081835388 0.9211019051974876 172 125 83
-0.030601435847361524 -0.06446217404386312 0.9225895653989473 158 116 79
0.02114305415769757 0.09482267378045872 0.9681434162844277 218 132 36
-0.028542105471962422 -0.29463922510470225 0.9126119080552816 67 43 37
-0.07575249098470538 -0.018163625743395362 0.9717693765719854 156 113 75
-0.08009678180393942 -0.04622956228505892 1.0102707919567484 91 64 47
-0.033998040842634136 -0.2615761494908364 0.9546986816120107 195 123 88
-0.09532686305847315 0.31350839175407597 1.0343054101720865 25 18 32
-0.07590860181179737 -0.09131012588022047 0.9648785895243328 91 60 41
-0.03498381283712204 -0.17784833912741904 0.9101749751938583 147 107 74
-0.11280679253868309 -0.16082910562056307 0.9578657123753622 175 131 89
-0.17767976344100966 -0.06539305424572528 1.0056259755841794 124 92 69
0.055765121051492006 -0.16334770801495857 0.9085009355409217 145 114 75
-0.07296428794843435 0.015946404914669365 0.9749831988458876 246 227 210
-0.08236824389458397 0.06965550924838038 1.003748316425645 174 145 124
-0.07562803942245466 0.016285025709263712 0.9856517650025949 251 238 230
-0.011856780624300156 -0.3194729502877441 0.9115229532241678 1 124 1
0.005705181598517961 -0.2535980387732658 0.921680171228907 0 131 0
-0.08078200846316452 0.26445968982850443 1.0325841688321062 88 48 41
0.0150959020343715 -0.14701560856968632 0.902776294607754 158 118 81
0.07058157115867081 -0.12008006475254396 0.9162618368821176 147 106 73
-0.16494955268782518 -0.07599606992881958 0.9850585367120713 153 115 81
-0.08385346030964402 -0.06484983119483267 0.9990220877867572 120 86 63
-0.015795832748655217 -0.32563022862241225 0.9185445278519168 2 116 1
-0.02494481870734231 -0.3233952091872164 0.9600652675056459 7 6 5
-0.009832068454722771 -0.0475552433579185 0.9193992115620068 155 115 79
-0.09663880066413474 0.295744215791001 1.03876021431992 76 56 63
-0.22548438422272776 -0.05291103387785995 1.0518692121338056 119 93 47
-0.08734686536987937 0.28053558251219635 1.0220679847028826 177 121 86
-0.07773821340660825 0.16735317632409163 0.9948264711278736 183 118 84
-0.016206270808373023 -0.27703072103751764 0.9109709758130697 31 17 18
0.038682485875636004 0.2548834668958952 1.0029397063474543 155 107 81
-0.025047831934333242 -0.13794949044876237 0.9128342569764273 160 118 82
-0.060403375330189524 0.03442453190269292 0.9561240940998729 236 217 201
-0.061498096261405226 0.10442095501736054 0.9732861686425897 233 146 41
0.007365816053686025 -0.1525190260292315 0.9030802832861884 160 121 85
-0.06262185210546033 0.06760012779325125 0.9686015975059263 240 151 41
-0.06779942016584961 0.08051334812063127 1.0332187276388227 182 112 35
-0.07774022754784804 0.03342215952941019 0.9916156003326146 183 101 29
-0.07508708998665325 -0.05016272592802107 1.0181951455142215 155 116 83
-0.064568441901097 -0.22044275399364066 0.9438865402139198 172 127 88
0.030445961575216805 0.1633400048016696 0.9784764760257892 184 124 87
-0.022689898431542233 -0.129077520815001 0.913236075951955 160 117 81
-0.07200660824759259 0.19764298459737112 0.9864721399474161 156 102 70
-0.05363253059672765 0.11382658047672575 1.04845926542519 247 235 229
-0.0032705329774830078 -0.10792809797647487 0.9082651154635356 155 116 82
-0.07653272236372644 -0.17684920315326247 0.9215548249183451 166 123 83
-0.10987798071761401 -0.1655868343363287 0.9565938756717205 162 118 84
-0.023943416986809875 -0.3293369688786855 0.9475872522773738 9 38 7
-0.1021207815578904 -0.17314979638158912 0.9422648963511342 170 127 88
-0.0811653904632354 -0.03833529366719166 0.9716410547307773 145 104 70
-0.07611482511506962 -0.19446481764971812 0.9261986006655959 161 120 82
-0.019715631660998306 0.07371622612702165 0.9673359016858901 166 90 26
0.03502175187742118 0.31727522372396466 1.0183201807231135 3 98 3
-0.10357833677222117 -0.17649123053106974 0.952129905258237 165 121 83
-0.018276896767780798 -0.24849293028232536 0.9784386077973081 171 104 68
0.04883749589176496 0.3084126684803866 1.0450895651546042 9 7 12
-0.006438432314618048 -0.07601111771847124 0.9141441113846818 154 114 79
-0.07886478147680039 -0.0041062290223682135 0.9865081955447068 156 113 75
-0.08293591165372627 -0.04795892279398539 0.9769172754409796 113 76 57
-0.03680880993746869 -0.2840258799051359 0.95540188276309 139 96 72
-0.0778302760471905 0.10773090964624998 1.0005271757358216 193 104 25
-0.08507715011226162 -0.06321243420558341 0.9849201735422103 124 87 64
-0.05066781310917235 0.12037950222098776 0.9745223595419266 208 130 42
0.035932325880916 -0.18252571894455635 0.902581580378712 160 117 82
-0.07279712595492871 -0.20173405223614438 0.9282818287908038 157 114 78
0.012722380509750976 -0.11785903344829753 0.9045489925209941 144 106 75
-0.10349624476642161 -0.17395063441968128 0.9470362276379174 163 121 83
-0.07843017404280128 0.050590964620712775 1.0022783558984278 241 150 41
-0.08444691881057009 -0.19313559014788728 0.9301945479557094 165 121 81
-0.06978430047098594 -0.14420826455383548 0.9280408668759328 133 93 65
-0.08735289050229644 -0.19537524500108328 0.9340786929973515 171 128 88
-0.19339546553102294 -0.0581479419234151 1.0235209702013157 169 124 81
-0.04720294686031775 -0.11134097484865542 0.920035288738032 155 115 78
-0.07877361660004978 0.09392590894159225 1.0117621395622791 204 134 62
-0.0908474373917989 -0.1830429656616066 0.9309171980600208 167 122 82
0.0036568261366567434 -0.2470738089059492 0.9259027018400263 76 110 34
-0.07603887302123113 -0.011199905157313832 0.972839844271296 163 117 75
-0.05858270046206404 0.05008448720980496 1.040769751239918 230 172 87
-0.05863042532708844 0.09237520662468489 0.9704936546964724 234 148 43
-0.05225060098815226 -0.19536097196069147 0.9155289331060065 159 117 78
-0.07394095625518537 -0.1074537804862481 0.9688053961295142 81 51 37
-0.03976763263928149 -0.2995379305641042 0.949349682420278 87 57 47
-0.11116687298639119 0.2974531788971613 1.0731217499377628 64 45 48
-0.07954309929508423 -0.16546927891956856 0.9240397017407638 158 119 81
-0.07492307864965315 0.14949055528687896 0.99904170483352 180 118 85
0.03772389993500632 0.27991682190698014 1.0132884600701288 62 33 29
-0.1466034726138239 -0.11179549406849265 0.9735914474281882 177 132 90
0.0005799629895979486 -0.11841241787552814 0.9060354861024356 159 119 82
-0.07853532921314266 -0.037277959745263156 0.9652708999130333 152 112 75
-0.042556966456374246 -0.2946906440699508 0.9372545520202453 81 52 42
-0.04169915833033827 -0.29856377059482186 0.9311995001808334 66 42 38
-0.03356176802260529 -0.2572064307364613 0.9418949435183085 181 116 80
-0.07793329314275133 -0.059841301399087055 0.9635914527761792 146 104 71
-0.06402350705808277 0.1368427379340901 0.979650082431589 237 148 45
-0.0038841306000664006 -0.2830852455964007 0.9071444758107647 61 38 35
-0.10454713882875577 -0.17573538298657088 0.9573973079445393 170 127 88
0.02163617514584222 0.15636637478156112 0.9846978450468775 168 111 84
-0.07501032900288289 0.18343215219142378 0.9867783677199286 172 108 73
-0.02172340089449043 -0.15168195169119425 0.9099569528154282 160 118 83
0.04729062452162513 0.11359778522650699 1.0149527358898376 241 170 88
-0.10547815787043875 0.30551744530421554 1.0399595926499114 64 48 51
0.18117161868993606 0.008158431014019474 0.9672437707630632 42 113 17
0.027690765903916684 0.2351623517858381 0.9920865776558868 148 103 79
0.10537129452256244 -0.09246462299486238 0.9391745047498439 170 124 83
-0.000953083963865356 -0.3178195816468597 0.9354227323622661 0 123 0
0.18097378645238651 -0.016514982146047075 0.9717678571085581 153 87 71
-0.10183540869897498 0.30958772847088833 1.0715965783266268 76 57 61
0.04753956893051524 0.2802921941271579 1.0057468054655498 168 106 83
-0.09357350094771594 0.2934948887995083 1.0212744653581547 46 43 37
0.18175691699382815 -0.03218716102122923 0.9730755807063003 190 101 83
-0.0618746707579686 0.3051739490849017 1.0033372078623795 35 23 26
-0.07047322835692388 0.32060706956058227 1.0243599125215113 41 29 35
0.05080056510431617 0.0649545820172312 1.0026024238016984 249 160 45
0.03733169803757808 0.227819986384038 1.0009572617907314 149 102 77
0.028650297693214408 0.1299148831611977 1.0276703901281468 245 232 223
0.06652890375367379 -0.16454560757887904 0.9390142591133421 149 108 76
0.11481383762717247 -0.040953130966291995 0.9559269030671165 119 83 59
-0.07850383877152949 0.3205739126786955 1.0437267246909454 127 108 102
0.01024694847872716 0.14051980543296194 1.0350193233035978 4 118 0
0.05690872900789451 -0.0856369634445861 0.9787048201544117 157 115 81
-0.08753819010142064 0.22146961498539075 1.0017025729065225 78 111 35
-0.10324449508219793 0.30570327597039193 1.0586727034484917 39 26 27
0.05049596571083087 0.02945874582636382 0.9981257036634906 237 146 44
-0.08541793322211147 0.19452866876567804 0.9954943164876505 179 119 88
0.013865226328513162 0.10082925723077785 1.0303968330242115 234 144 37
0.05315412817478234 0.11495554129939428 1.0073956654397405 238 179 115
0.06717150620589009 0.31074948615409426 1.0592780079975168 59 43 45
0.03952245997987345 0.08452562553907111 1.0177156695823633 146 80 26
0.041459233217360905 0.25018519922254856 1.0003249962763618 155 106 81
0.05258535678409291 0.047106618416406176 0.997790522559476 242 171 81
0.03420409101927632 0.12200167676040397 1.0230688485269064 202 174 143
0.04492020844078889 0.04417278257551477 1.0058326321410904 240 159 61
0.05472706456382617 0.3020788979820852 1.0337657635920312 50 39 44
-0.00825459350545054 0.06312421150642689 1.0127675879438496 140 68 17
-0.05661204254440741 0.23664207259640668 1.001693053648708 127 87 70
-0.11450054641789004 0.31009619441762437 1.0462533887830647 62 48 48
0.048131784745974106 -0.002513164268242052 1.0022477451034377 171 128 86
-0.0950718718145263 0.2967568170336172 1.0264831669200576 44 31 35
0.1914620817329011 -0.0058614094935062755 0.9683287302053559 122 54 48
0.09736798431187493 -0.07071495201858857 0.9527932340240556 138 98 69
0.14486989780932008 -0.039056626424677054 0.9705475206011688 149 107 70
0.03543346317910272 0.01745766700960677 1.0108391164201003 251 245 236
0.04626504003768146 -0.0030000783089895733 1.0038159263413344 161 117 78
0.08991815937358724 0.31992700254918605 1.061610992701901 11 43 12
-0.028091756436739126 0.1379829893533494 1.0404846298742676 253 233 226
0.0935521953941 -0.08676544783824774 0.948419492193189 155 113 76
0.1475084732427182 -0.014519375493453113 0.9582575491871484 39 117 23
0.03816722152650311 0.14056524496257272 1.018082211464212 253 240 231
0.030380572590237277 0.1020796632635862 1.0229751242718086 187 102 23
0.0670653129423772 -0.046556453439471346 0.9706951484655689 139 98 67
0.008404208133898784 0.13880641634181246 1.0344247412296217 162 189 143
0.10182573589563737 -0.051183788454291224 0.9507960629492095 110 75 53
0.16427653597249364 -0.004210817727998473 0.9629739319598897 73 107 38
0.11290784918526367 -0.042796802769684894 0.9556284117709601 97 66 48
0.13141939698707272 -0.06981885716614722 0.9486033493344018 162 112 83
0.10466929069251384 -0.0675727066326039 0.9556106843387276 135 96 67
-0.0815722044835989 0.32128649150171373 1.0521256204130904 108 86 78
0.0488590192031009 0.0623070497446328 1.0043604897880485 239 152 43
0.16628547238362337 -0.021471883027207372 0.9690019222123303 144 99 75
0.07514048044986027 0.30597835457062783 1.0503861992674934 43 31 32
-0.05480645153668426 0.23775466172296245 0.9997688692594716 113 89 62
0.1240142276685355 -0.03604505116269374 0.9591979486507874 103 72 53
-0.07322894240247373 0.23086833911915083 1.0117423906613596 148 102 75
0.06168856334637004 -0.0006233658428909106 0.9838066976068166 80 120 39
0.035667567229970776 0.05456182481398342 1.0144257043028109 243 151 41
0.08430666152380006 -0.08304145901336113 0.9486795487670413 136 96 64
0.03616956992323301 0.13280417906508446 1.021547338172165 238 221 209
0.051892480393955026 -0.0031732666471356863 0.9982691334498472 168 125 84
-0.08621751300125988 0.254670474795996 1.005058656255207 44 120 21
0.04905559283683082 0.3186129944959649 1.0358074304358982 106 80 71
0.01576033056839718 0.1375283460683735 1.0369667039652932 231 217 215
-0.09895813837443075 0.30681067407783447 1.0632565813223702 59 44 47
0.037811656285991826 0.28057367614936357 0.9982712954171908 105 70 55
0.0535191992412274 -0.030006968547481305 0.9934136389773474 157 116 81
0.04506097361424725 0.06450691333127068 1.0088277207782088 249 158 44
0.06712440053458239 0.3119482351689431 1.060674486772203 51 38 42
0.02770916012112864 0.23769384301069296 0.9915353762330268 79 113 39
0.10103693321305755 -0.08493540254794851 0.9486413956849117 160 119 83
0.03131848081368374 0.20044377345999775 0.9995224320214386 161 114 84
-0.1160529894260009 0.30913415969754854 1.0632285005643956 54 36 45
0.05634566135257607 0.3256668661331078 1.0509622692008715 125 95 105
-0.08070214799077002 0.2980632515079079 1.034354855979248 22 18 18
-0.0895312791150731 0.3213203658372956 1.067400826236748 167 142 133
0.06275409560194725 -0.1803683307678542 0.9354899703144908 130 88 62
-0.021053089771235704 0.11424481402497871 1.0273138501396246 146 120 97
0.041274532596190544 0.06139408806236135 1.0118131601811975 243 151 44
0.11935363237371341 -0.060973918458557985 0.9597256082947373 149 110 78
0.0313338157400625 0.20265061141603502 0.999425797411663 157 110 80
0.04361566345533152 0.12447333123690363 1.0176762921849174 179 118 55
-0.10001714223930097 0.30986166429989703 1.0712004963645305 61 45 49
-0.05480083700728486 0.16695365649981442 1.007390041720178 122 75 54
-0.05265392273383186 0.1428662043480372 1.030790787900226 141 107 97
0.008336415322044611 0.05050579485684542 1.020194860904225 218 121 29
0.01743585365046635 0.06624109377358606 1.0243443913236265 239 147 41
0.06666125280835877 0.29867172963220456 1.0254934050461937 40 33 34
0.03557065384597373 0.03627322892168228 1.0116800551299039 244 150 37
0.12494848862949277 -0.05215433443107387 0.9624270189924444 154 113 77
-0.07206893466362538 0.1638009274774035 1.0054735511306 153 93 67
0.03795681954667525 0.31294040347344665 1.0045249999223544 26 16 20
0.1729995511442103 -0.024421957465930955 0.9726425347641816 172 107 84
0.04716797600214191 0.09151848171822596 1.0104677506112862 149 103 67
0.04768736274010085 -0.0816786291771966 0.9857940030309633 91 61 47
0.042969479278122925 0.03432816544468453 1.0063111220095413 104 105 125
0.04198041547268648 0.14008302473271522 1.0148113196247777 251 237 229
0.043592841874970506 0.2696031697987409 1.0013613561196746 175 118 90
-0.06346609455645234 0.28119637495873917 1.0017704376984917 11 128 6
-0.08868598765551783 0.2882351514641586 1.0191051704476877 15 8 12
0.1377200428247033 -0.03856914780539358 0.9687333488007064 140 103 74
0.04902203234658266 0.3109332042932693 1.0339453470685238 56 41 43
0.04623987406039165 -0.006596899921082033 1.0032575095958451 124 87 62
0.08430666152380006 -0.08304145901336113 0.9486795487670413 136 96 64
0.06714814114074422 0.32445150526183864 1.0646875613823403 18 25 15
-0.0516952657395648 0.08454980761681485 1.0277092732878526 230 138 39
0.05467979038389814 0.30313207376307016 1.0354852909391576 50 39 44
0.04123034388789949 0.05404578791864956 1.0106463788371627 244 152 43
0.10101180013609248 -0.041094100158492464 0.9413222651240485 29 110 16
-0.00833812115322494 0.07327583423064066 1.011905474725221 155 78 22
-0.054224762454973194 0.13413746831988488 1.032140061514422 247 236 230
0.1978702696616961 0.011336564189861842 0.9694939734190733 99 129 55
0.08082421948610612 -0.07522332186372038 0.9475267525921357 118 80 56
0.14136388421106078 -0.03693806598858468 0.969744929849916 106 71 50
0.09618254905621182 -0.056510572898117006 0.949041554839802 96 65 47
0.04380128692019295 0.13238837537048814 1.013787884569647 237 223 217
0.040671296307458256 -0.013146623553316361 1.0063028027207217 150 109 74
0.04079319446203456 0.009924944537640035 1.010652965562579 147 108 74
0.05687157241317725 -0.16075064485201124 0.951966466631316 149 107 72
0.011971496303387856 0.04588408342889405 1.0222285831979456 241 149 40
0.19234031570488289 0.006180050036640794 0.9672234088076265 51 115 23
-0.01698837677350666 0.032400728792794875 1.017511952763719 198 108 24
0.10658978291507551 -0.07974168039368634 0.9508095528631163 157 115 77
0.03689210003921552 0.17746845143521528 1.0025416320046945 131 77 57
0.059387302084961326 -0.015511827020558755 0.9888340730046258 152 113 79
0.06655842052189855 0.2992848506452128 1.0279058457541939 5 1 6
-0.04401967429569492 0.06311042431979014 1.027817916931224 226 131 34
0.03670659935583839 0.1612869592439019 1.0053913210674037 125 74 56
0.039661160612033314 0.10529441654961819 1.0201346783342005 222 130 32
-0.0372960168055012 0.14025670879415125 1.0400168590141028 229 211 212
0.02719671167268907 0.1636333641418089 1.00496783601491 115 72 53
0.019432113124055808 0.13841459212755391 1.035130432932759 224 205 200
0.05071406531034239 0.055508678580071524 1.0015718323879286 246 155 42
-0.1001295108018441 0.3021603760989442 1.0350607023360712 80 64 62
0.0007825837926145607 -0.3178642141450019 0.9342591141518762 5 67 5
0.11767474622655544 -0.02967590939665954 0.9497935621786817 36 117 22
0.048684132266614714 0.1937895339998903 0.9997625959094494 170 120 86
0.11762220882091831 -0.055436665802489016 0.9603595663814445 134 96 68
0.02441151368677556 -0.00865288831045985 1.0160813733380882 115 79 55
0.049170723081201864 0.10697700195529436 1.0117395876159159 235 167 86
0.049031011557108074 0.0864695940566968 1.0082460543435638 245 153 41
0.01548560516181551 -0.009044087220953623 1.0174007784140946 159 118 81
-0.02634738356362673 0.13702203718749173 1.0383514385884642 241 219 202
-0.06612684251050494 0.16631389752664094 1.0087466269399865 129 79 57
0.05481368445454156 0.29983847583314605 1.0304982230173092 26 22 23
0.06591159011452734 0.3042235738167165 1.0434717049161673 12 6 12
0.019749836251177592 0.21335554345070962 0.9838743110250471 136 99 68
0.1358370368119583 -0.056133940689440526 0.9631408228408308 154 113 80
-0.06270048898368882 0.1453754596616606 1.021639010669722 116 76 74
-0.0778882390533844 0.2782858086014486 1.0170284395486056 148 85 70
0.0771808642772925 -0.07488136260664352 0.9459711963292747 111 79 58
0.023135026823258104 0.14028700226622592 1.0312849354465667 243 230 224
0.06065235492760562 0.04854868801761825 0.9829762186526436 22 131 7
-0.06364307112289845 0.28435130887868687 1.0003642555610879 25 5 14
0.08814041859955568 -0.11097162383874559 0.9375614322517324 127 87 61
-0.07766738801521904 0.14858361154699706 1.002475602121124 15 131 15
0.017492551952769476 0.09189356048718689 1.028313821037827 239 150 40
-0.10158569024544616 0.30350254422874257 1.0396177546980516 66 51 50
-0.004753348730953767 0.09498963613958306 1.012099072370353 166 85 22
0.05242963051761301 0.03025855790388665 0.9958110829275594 228 136 37
0.12494848862949277 -0.05215433443107387 0.9624270189924444 154 113 77
0.17699437178941402 0.00032311413138286227 0.9672922680205578 152 85 71
0.004617093204572459 0.11629190580917093 1.022634231355494 165 136 107
0.035770238869651604 0.2631651368817879 0.9936520841013934 143 103 73
-0.11918186070437814 0.31533292626389486 1.0698593305267154 8 126 7
0.1825409959831198 -0.0015943851913707285 0.9671431370615491 130 66 54
0.1127336373546475 -0.044990164066285615 0.9567111084578963 110 77 56
0.03969788859505782 0.2923226297810142 1.008137676632918 169 118 92
-0.07495789082238127 0.22229171231379408 1.0115880558712695 157 109 76
-0.08975414441553554 0.3098823994107316 1.0619384803454026 61 43 45
0.0392896252633746 0.22969516855383998 1.001483215567765 129 78 61
0.05716131584658565 0.289492134005652 1.0157663015060958 29 15 17
0.013881682319885597 0.10982919644896316 1.0323435771884455 240 150 42
0.051792952908269775 0.1418356680130678 1.0024730518625709 126 184 117
0.08393467190065844 0.31196207346800875 1.0635557974821492 51 37 43
0.09929388711151318 -0.08993838883762978 0.945474011741875 149 109 76
0.03699709067987529 0.18851422719449207 1.0017413511340392 154 103 74
-0.038873744437874544 0.1155523478952939 1.0375396426549393 240 225 218
0.013767830113386668 0.03846904277543106 1.0215893812146541 240 149 39
0.17323762499944778 -0.001454960467734745 0.9667447652842533 103 98 51
0.03717116941452773 0.20997285015552503 1.0017682983501839 160 115 86
-0.09530282336783474 0.29607605280410054 1.0241529105666864 49 40 38
-0.06887842158013883 0.21139963303040943 1.0117346891753103 150 103 78
0.1998547559263935 -0.010810425661394563 0.9719078121531204 75 106 30
0.06136993001788413 0.2876857715541168 1.0081319303181484 3 96 3
-0.09791157417687166 0.31763108078239055 1.0754887296713098 165 139 127
-0.07024150110728941 0.2831819145459531 1.0162893256180094 140 87 73
0.038865022917583814 0.18203339852037037 1.0019036940901695 135 80 56
-0.07524381009754101 0.3095828964913685 1.0337945524212842 23 13 16
0.033982433432118 0.28714367249899353 0.9915056042790436 1 123 1
-0.0840884247515486 0.2575588090253845 1.0075825190569305 171 111 82
-0.04318938740903529 0.14310495666046463 1.0343195133970076 214 198 201
